485.99485376781007 630.4018219744744 -196.84481380641216
485.4825550091007 628.487442402455 -197.1144447320487
484.9702562503913 626.5730628304357 -197.38407565768523
484.4579574916819 624.6586832584163 -197.65370658332176
483.9456587329725 622.744303686397 -197.9233375089583
483.4333599742631 620.8299241143776 -198.19296843459483
482.9210612155537 618.9155445423582 -198.46259936023137
482.40876245684433 617.0011649703389 -198.7322302858679
481.89646369813494 615.0867853983195 -199.00186121150443
481.38416493942555 613.1724058263002 -199.27149213714097
480.87186618071615 611.2580262542808 -199.5411230627775
480 608 -200
479.66765126949656 606.0886128302395 -199.51405410938293
479.3353025389931 604.177225660479 -199.02810821876585
479.0029538084897 602.2658384907186 -198.54216232814878
478.67060507798624 600.3544513209581 -198.0562164375317
478.3382563474828 598.4430641511976 -197.57027054691463
478.00590761697936 596.5316769814372 -197.08432465629755
477.6735588864759 594.6202898116767 -196.59837876568048
477.3412101559725 592.7089026419162 -196.1124328750634
477.00886142546904 590.7975154721557 -195.62648698444633
476.6765126949656 588.8861283023953 -195.14054109382926
476.34416396446215 586.9747411326348 -194.65459520321218
476.0118152339587 585.0633539628743 -194.1686493125951
475.6794665034553 583.1519667931138 -193.68270342197803
475.34711777295183 581.2405796233534 -193.19675753136096
475.0147690424484 579.3291924535929 -192.71081164074388
474.68242031194495 577.4178052838324 -192.2248657501268
474.3500715814415 575.506418114072 -191.73891985950974
474.01772285093807 573.5950309443115 -191.25297396889266
473.68537412043463 571.683643774551 -190.7670280782756
473.3530253899312 569.7722566047905 -190.2810821876585
473.02067665942775 567.86086943503 -189.79513629704144
472.6883279289243 565.9494822652696 -189.30919040642436
472.35597919842087 564.0380950955091 -188.8232445158073
472.0236304679174 562.1267079257486 -188.33729862519021
471.691281737414 560.2153207559882 -187.85135273457314
471.35893300691055 558.3039335862277 -187.36540684395607
471.0265842764071 556.3925464164672 -186.879460953339
470.69423554590367 554.4811592467067 -186.39351506272192
470.3618868154002 552.5697720769463 -185.90756917210484
470.0295380848968 550.6583849071858 -185.42162328148777
469.69718935439334 548.7469977374253 -184.9356773908707
469.3648406238899 546.8356105676648 -184.44973150025362
469.03249189338646 544.9242233979044 -183.96378560963655
468.700143162883 543.0128362281439 -183.47783971901947
468.3677944323796 541.1014490583834 -182.9918938284024
468.03544570187614 539.190061888623 -182.50594793778532
467.7030969713727 537.2786747188625 -182.02000204716825
467.37074824086926 535.367287549102 -181.53405615655117
467.0383995103658 533.4559003793415 -181.0481102659341
466.7060507798624 531.544513209581 -180.56216437531702
466.37370204935894 529.6331260398206 -180.07621848469995
466.0413533188555 527.7217388700601 -179.59027259408288
465.70900458835206 525.8103517002996 -179.1043267034658
465.3766558578486 523.8989645305392 -178.61838081284873
465.0443071273452 521.9875773607787 -178.13243492223165
464.71195839684174 520.0761901910182 -177.64648903161458
464.3796096663383 518.1648030212577 -177.1605431409975
464.04726093583486 516.2534158514973 -176.67459725038043
463.7149122053314 514.3420286817368 -176.18865135976336
463.382563474828 512.4306415119763 -175.70270546914628
463.05021474432453 510.5192543422158 -175.2167595785292
462.7178660138211 508.60786717245526 -174.73081368791213
462.38551728331765 506.6964800026947 -174.24486779729506
462.0531685528142 504.7850928329342 -173.75892190667798
461.7208198223108 502.87370566317367 -173.2729760160609
461.38847109180733 500.96231849341314 -172.78703012544383
461.0561223613039 499.0509313236526 -172.30108423482676
460.72377363080045 497.1395441538921 -171.81513834420969
460.391424900297 495.22815698413154 -171.3291924535926
460.05907616979357 493.316769814371 -170.84324656297554
459.72672743929013 491.4053826446105 -170.35730067235846
459.3943787087867 489.49399547484995 -169.8713547817414
459.06202997828325 487.5826083050894 -169.3854088911243
458.7296812477798 485.6712211353289 -168.89946300050724
458.39733251727637 483.75983396556836 -168.41351710989017
458.0649837867729 481.84844679580783 -167.9275712192731
457.7326350562695 479.9370596260473 -167.44162532865602
457.40028632576605 478.02567245628677 -166.95567943803894
457.0679375952626 476.11428528652624 -166.46973354742187
456.73558886475917 474.2028981167657 -165.9837876568048
456.4032401342557 472.2915109470052 -165.49784176618772
456.0708914037523 470.38012377724465 -165.01189587557064
455.73854267324884 468.4687366074841 -164.52594998495357
455.4061939427454 466.5573494377236 -164.0400040943365
455.07384521224196 464.64596226796306 -163.55405820371942
454.7414964817385 462.7345750982025 -163.06811231310235
454.4091477512351 460.823187928442 -162.58216642248527
454.07679902073164 458.91180075868147 -162.0962205318682
453.7444502902282 457.00041358892094 -161.61027464125112
453.41210155972476 455.0890264191604 -161.12432875063405
453.0797528292213 453.1776392493999 -160.63838286001697
452.7474040987179 451.26625207963934 -160.1524369693999
452.41505536821444 449.3548649098788 -159.66649107878283
452.082706637711 447.4434777401183 -159.18054518816575
451.75035790720756 445.53209057035775 -158.69459929754868
451.4180091767041 443.6207034005972 -158.2086534069316
451.0856604462007 441.7093162308367 -157.72270751631453
450.75331171569724 439.79792906107616 -157.23676162569745
450.4209629851938 437.88654189131563 -156.75081573508038
450.08861425469036 435.9751547215551 -156.2648698444633
449.7562655241869 434.06376755179457 -155.77892395384623
449.4239167936835 432.15238038203404 -155.29297806322916
449.09156806318003 430.2409932122735 -154.80703217261208
448.7592193326766 428.329606042513 -154.321086281995
448.42687060217315 426.41821887275245 -153.83514039137793
448.0945218716697 424.5068317029919 -153.34919450076086
447.7621731411663 422.5954445332314 -152.86324861014378
447.42982441066283 420.68405736347086 -152.3773027195267
447.0974756801594 418.7726701937103 -151.89135682890964
446.76512694965595 416.8612830239498 -151.40541093829256
446.4327782191525 414.94989585418926 -150.9194650476755
446.10042948864907 413.03850868442873 -150.4335191570584
445.76808075814563 411.1271215146682 -149.94757326644134
445.4357320276422 409.2157343449077 -149.46162737582426
445.10338329713875 407.30434717514714 -148.9756814852072
444.7710345666353 405.3929600053866 -148.48973559459012
444.43868583613187 403.4815728356261 -148.00378970397304
444.1063371056284 401.57018566586555 -147.51784381335597
443.773988375125 399.658798496105 -147.0318979227389
443.44163964462155 397.7474113263445 -146.54595203212182
443.1092909141181 395.83602415658396 -146.06000614150474
442.77694218361466 393.92463698682343 -145.57406025088767
442.4445934531112 392.0132498170629 -145.0881143602706
442.1122447226078 390.10186264730237 -144.60216846965352
441.77989599210434 388.19047547754184 -144.11622257903645
441.4475472616009 386.2790883077813 -143.63027668841937
441.11519853109746 384.3677011380208 -143.1443307978023
440.782849800594 382.45631396826025 -142.65838490718522
440.4505010700906 380.5449267984997 -142.17243901656815
440.11815233958714 378.6335396287392 -141.68649312595107
439.7858036090837 376.72215245897866 -141.200547235334
439.45345487858026 374.8107652892181 -140.71460134471693
439.1211061480768 372.8993781194576 -140.22865545409985
438.7887574175734 370.98799094969706 -139.74270956348278
438.45640868706994 369.07660377993653 -139.2567636728657
438.1240599565665 367.165216610176 -138.77081778224863
437.79171122606306 365.2538294404155 -138.28487189163155
437.4593624955596 363.34244227065494 -137.79892600101448
437.1270137650562 361.4310551008944 -137.3129801103974
436.79466503455274 359.5196679311339 -136.82703421978033
436.4623163040493 357.60828076137335 -136.34108832916326
436.12996757354585 355.6968935916128 -135.85514243854618
435.7976188430424 353.7855064218523 -135.3691965479291
435.465270112539 351.87411925209176 -134.88325065731203
435.13292138203553 349.96273208233123 -134.39730476669496
434.8005726515321 348.0513449125707 -133.91135887607788
434.46822392102865 346.13995774281017 -133.4254129854608
434.1358751905252 344.22857057304964 -132.93946709484374
433.80352646002177 342.3171834032891 -132.45352120422666
433.47117772951833 340.4057962335286 -131.9675753136096
433.1388289990149 338.49440906376805 -131.4816294229925
432.80648026851145 336.5830218940075 -130.99568353237544
432.474131538008 334.671634724247 -130.50973764175836
432.14178280750457 332.76024755448645 -130.0237917511413
431.80943407700113 330.8488603847259 -129.53784586052421
431.4770853464977 328.9374732149654 -129.05189996990714
431.14473661599425 327.02608604520486 -128.56595407929007
430.8123878854908 325.11469887544433 -128.080008188673
430.48003915498737 323.2033117056838 -127.59406229805592
430.1476904244839 321.2919245359233 -127.10811640743884
429.8153416939805 319.38053736616274 -126.62217051682177
429.48299296347705 317.4691501964022 -126.1362246262047
429.1506442329736 315.5577630266417 -125.65027873558762
428.81829550247016 313.64637585688115 -125.16433284497055
428.4859467719667 311.7349886871206 -124.67838695435347
428.1535980414633 309.8236015173601 -124.1924410637364
427.82124931095984 307.91221434759956 -123.70649517311932
427.4889005804564 306.000827177839 -123.22054928250225
427.15655184995296 304.0894400080785 -122.73460339188517
426.8242031194495 302.17805283831797 -122.2486575012681
426.4918543889461 300.26666566855744 -121.76271161065102
426.15950565844264 298.3552784987969 -121.27676572003395
425.8271569279392 296.4438913290364 -120.79081982941688
425.49480819743576 294.53250415927585 -120.3048739387998
425.1624594669323 292.6211169895153 -119.81892804818273
424.8301107364289 290.7097298197548 -119.33298215756565
424.49776200592544 288.79834264999425 -118.84703626694858
424.165413275422 286.8869554802337 -118.3610903763315
423.83306454491856 284.9755683104732 -117.87514448571443
423.5007158144151 283.06418114071266 -117.38919859509735
423.1683670839117 281.15279397095213 -116.90325270448028
422.83601835340824 279.2414068011916 -116.4173068138632
422.5036696229048 277.33001963143107 -115.93136092324613
422.17132089240135 275.41863246167054 -115.44541503262906
421.8389721618979 273.50724529191 -114.95946914201198
421.5066234313945 271.5958581221495 -114.47352325139491
421.17427470089103 269.68447095238895 -113.98757736077783
420.8419259703876 267.7730837826284 -113.50163147016076
420.50957723988415 265.8616966128679 -113.01568557954369
420.1772285093807 263.95030944310736 -112.52973968892661
419.84487977887727 262.0389222733468 -112.04379379830954
419.51253104837383 260.1275351035863 -111.55784790769246
419.1801823178704 258.21614793382577 -111.07190201707539
418.84783358736695 256.30476076406524 -110.58595612645831
418.5154848568635 254.39337359430473 -110.10001023584124
418.18313612636007 252.48198642454423 -109.61406434522416
417.8507873958566 250.57059925478373 -109.12811845460709
417.5184386653532 248.65921208502323 -108.64217256399002
417.18608993484975 246.74782491526273 -108.15622667337294
416.8537412043463 244.83643774550222 -107.67028078275587
416.52139247384287 242.92505057574172 -107.18433489213879
416.1890437433394 241.01366340598122 -106.69838900152172
415.856695012836 239.10227623622072 -106.21244311090464
415.52434628233254 237.19088906646022 -105.72649722028757
415.1919975518291 235.2795018966997 -105.2405513296705
414.85964882132566 233.3681147269392 -104.75460543905342
414.5273000908222 231.4567275571787 -104.26865954843635
414.1949513603188 229.5453403874182 -103.78271365781927
413.86260262981534 227.6339532176577 -103.2967677672022
413.5302538993119 225.7225660478972 -102.81082187658512
413.19790516880846 223.8111788781367 -102.32487598596805
412.865556438305 221.8997917083762 -101.83893009535097
412.5332077078016 219.9884045386157 -101.3529842047339
412.20085897729814 218.0770173688552 -100.86703831411683
411.8685102467947 216.1656301990947 -100.38109242349975
411.53616151629126 214.2542430293342 -99.89514653288268
411.2038127857878 212.3428558595737 -99.4092006422656
410.8714640552844 210.4314686898132 -98.92325475164853
410.53911532478094 208.52008152005268 -98.43730886103145
410.2067665942775 206.60869435029218 -97.95136297041438
409.87441786377406 204.69730718053168 -97.4654170797973
409.5420691332706 202.78592001077118 -96.97947118918023
409.2097204027672 200.87453284101068 -96.49352529856316
408.87737167226373 198.96314567125017 -96.00757940794608
408.5450229417603 197.05175850148967 -95.52163351732901
408.21267421125685 195.14037133172917 -95.03568762671193
407.8803254807534 193.22898416196867 -94.54974173609486
407.54797675025 191.31759699220817 -94.06379584547778
407.21562801974653 189.40620982244766 -93.57784995486071
406.8832792892431 187.49482265268716 -93.09190406424364
406.55093055873965 185.58343548292666 -92.60595817362656
406.2185818282362 183.67204831316616 -92.12001228300949
405.88623309773277 181.76066114340566 -91.63406639239241
405.55388436722933 179.84927397364515 -91.14812050177534
405.2215356367259 177.93788680388465 -90.66217461115826
404.88918690622245 176.02649963412415 -90.17622872054119
404.556838175719 174.11511246436365 -89.69028282992412
404.22448944521557 172.20372529460315 -89.20433693930704
403.8921407147121 170.29233812484264 -88.71839104868997
403.5597919842087 168.38095095508214 -88.23244515807289
403.22744325370525 166.46956378532164 -87.74649926745582
402.8950945232018 164.55817661556114 -87.26055337683874
402.56274579269837 162.64678944580064 -86.77460748622167
402.2303970621949 160.73540227604013 -86.2886615956046
401.8980483316915 158.82401510627963 -85.80271570498752
401.56569960118804 156.91262793651913 -85.31676981437045
401.2333508706846 155.00124076675863 -84.83082392375337
400.90100214018116 153.08985359699813 -84.3448780331363
400.5686534096777 151.17846642723762 -83.85893214251922
400.2363046791743 149.26707925747712 -83.37298625190215
399.90395594867084 147.35569208771662 -82.88704036128507
399.5716072181674 145.44430491795612 -82.401094470668
399.23925848766396 143.53291774819562 -81.91514858005092
398.9069097571605 141.6215305784351 -81.42920268943385
398.5745610266571 139.7101434086746 -80.94325679881678
397.9294476391799 136 -80
396.56328032842845 136 -78.53931972046098
395.197113017677 136 -77.07863944092196
393.83094570692555 136 -75.61795916138294
392.4647783961741 136 -74.15727888184392
391.09861108542265 136 -72.6965986023049
389.7324437746712 136 -71.23591832276588
388.36627646391975 136 -69.77523804322686
387.0001091531683 136 -68.31455776368784
385.63394184241685 136 -66.85387748414882
384.2677745316654 136 -65.3931972046098
382.90160722091395 136 -63.932516925070786
381.5354399101625 136 -62.471836645531766
380.16927259941104 136 -61.01115636599275
378.8031052886596 136 -59.55047608645373
377.43693797790814 136 -58.08979580691471
376.0707706671567 136 -56.62911552737569
374.70460335640524 136 -55.16843524783667
373.3384360456538 136 -53.70775496829765
371.97226873490234 136 -52.24707468875863
370.6061014241509 136 -50.78639440921961
368 136 -48
366.04439517184517 136 -47.58094182253825
364.08879034369033 136 -47.1618836450765
362.1331855155355 136 -46.74282546761475
360.17758068738067 136 -46.323767290153
358.22197585922584 136 -45.90470911269125
356.266371031071 136 -45.4856509352295
354.31076620291617 136 -45.06659275776775
352.35516137476134 136 -44.647534580306
350.3995565466065 136 -44.22847640284425
348.4439517184517 136 -43.8094182253825
346.48834689029684 136 -43.39036004792075
344.532742062142 136 -42.971301870459
342.5771372339872 136 -42.55224369299725
340.62153240583234 136 -42.1331855155355
338.6659275776775 136 -41.71412733807375
336.7103227495227 136 -41.295069160612
334.75471792136784 136 -40.87601098315025
332.799113093213 136 -40.4569528056885
330.8435082650582 136 -40.03789462822675
328.88790343690334 136 -39.618836450765
326.9322986087485 136 -39.19977827330325
324.9766937805937 136 -38.7807200958415
323.02108895243884 136 -38.36166191837975
321.065484124284 136 -37.942603740918
319.1098792961292 136 -37.52354556345625
317.15427446797435 136 -37.1044873859945
315.1986696398195 136 -36.68542920853275
313.2430648116647 136 -36.266371031071
311.28745998350985 136 -35.84731285360925
309.331855155355 136 -35.4282546761475
307.3762503272002 136 -35.00919649868575
305.42064549904535 136 -34.590138321224
303.4650406708905 136 -34.171080143762254
301.5094358427357 136 -33.752021966300504
299.55383101458085 136 -33.332963788838754
297.598226186426 136 -32.913905611377004
295.6426213582712 136 -32.494847433915254
293.68701653011635 136 -32.075789256453504
291.7314117019615 136 -31.656731078991758
289.7758068738067 136 -31.23767290153001
287.82020204565185 136 -30.818614724068265
285.864597217497 136 -30.39955654660652
283.9089923893422 136 -29.980498369144772
281.95338756118736 136 -29.561440191683026
279.9977827330325 136 -29.14238201422128
278.0421779048777 136 -28.723323836759533
276.08657307672286 136 -28.304265659297787
274.130968248568 136 -27.88520748183604
272.1753634204132 136 -27.466149304374294
270.21975859225836 136 -27.047091126912548
268.2641537641035 136 -26.6280329494508
266.3085489359487 136 -26.208974771989055
264.35294410779386 136 -25.78991659452731
262.397339279639 136 -25.370858417065563
260.4417344514842 136 -24.951800239603816
258.48612962332936 136 -24.53274206214207
256 136 -24
254.1113354102256 135.3420136267883 -24
252.22267082045119 134.68402725357657 -24
250.33400623067678 134.02604088036486 -24
248.44534164090237 133.36805450715315 -24
246.55667705112796 132.71006813394143 -24
244.66801246135356 132.05208176072972 -24
242.77934787157915 131.394095387518 -24
240.89068328180474 130.7361090143063 -24
239.00201869203033 130.07812264109458 -24
237.11335410225593 129.42013626788287 -24
235.22468951248152 128.76214989467115 -24
233.3360249227071 128.10416352145944 -24
231.4473603329327 127.44617714824771 -24
229.5586957431583 126.78819077503599 -24
227.6700311533839 126.13020440182426 -24
225.78136656360948 125.47221802861253 -24
223.89270197383507 124.8142316554008 -24
222.00403738406067 124.15624528218908 -24
220.11537279428626 123.49825890897735 -24
218.22670820451185 122.84027253576562 -24
216.33804361473744 122.1822861625539 -24
214.44937902496304 121.52429978934217 -24
212.56071443518863 120.86631341613044 -24
210.67204984541422 120.20832704291871 -24
208.7833852556398 119.55034066970698 -24
206.8947206658654 118.89235429649526 -24
205.006056076091 118.23436792328353 -24
203.1173914863166 117.5763815500718 -24
201.22872689654218 116.91839517686007 -24
199.34006230676778 116.26040880364835 -24
197.45139771699337 115.60242243043662 -24
195.56273312721896 114.94443605722489 -24
193.67406853744455 114.28644968401316 -24
191.78540394767015 113.62846331080144 -24
189.89673935789574 112.97047693758971 -24
188.00807476812133 112.31249056437798 -24
186.11941017834693 111.65450419116625 -24
184.23074558857252 110.99651781795453 -24
182.3420809987981 110.3385314447428 -24
180.4534164090237 109.68054507153107 -24
178.5647518192493 109.02255869831934 -24
176.6760872294749 108.36457232510762 -24
174.78742263970048 107.70658595189589 -24
172.89875804992607 107.04859957868416 -24
171.01009346015167 106.39061320547243 -24
169.12142887037726 105.7326268322607 -24
167.23276428060285 105.07464045904898 -24
165.34409969082844 104.41665408583725 -24
163.45543510105404 103.75866771262552 -24
161.56677051127963 103.1006813394138 -24
159.67810592150522 102.44269496620207 -24
157.7894413317308 101.78470859299034 -24
155.9007767419564 101.12672221977861 -24
154.012112152182 100.46873584656689 -24
152.1234475624076 99.81074947335516 -24
150.23478297263318 99.15276310014343 -24
148.34611838285878 98.4947767269317 -24
146.45745379308437 97.83679035371998 -24
144.56878920330996 97.17880398050825 -24
142.68012461353555 96.52081760729652 -24
140.79146002376115 95.8628312340848 -24
138.90279543398674 95.20484486087307 -24
137.01413084421233 94.54685848766134 -24
135.12546625443792 93.88887211444961 -24
133.23680166466352 93.23088574123788 -24
131.3481370748891 92.57289936802616 -24
129.4594724851147 91.91491299481443 -24
127.57080789534031 91.2569266216027 -24
125.68214330556592 90.59894024839097 -24
123.79347871579152 89.94095387517925 -24
121.90481412601713 89.28296750196752 -24
120.01614953624274 88.62498112875579 -24
118.12748494646834 87.96699475554406 -24
116.23882035669395 87.30900838233234 -24
114.35015576691956 86.65102200912061 -24
112.46149117714516 85.99303563590888 -24
110.57282658737077 85.33504926269715 -24
108.68416199759638 84.67706288948543 -24
106.79549740782198 84.0190765162737 -24
104.90683281804759 83.36109014306197 -24
103.0181682282732 82.70310376985024 -24
101.1295036384988 82.04511739663852 -24
99.24083904872441 81.38713102342679 -24
97.35217445895002 80.72914465021506 -24
95.46350986917562 80.07115827700333 -24
93.57484527940123 79.4131719037916 -24
91.68618068962684 78.75518553057988 -24
89.79751609985244 78.09719915736815 -24
87.90885151007805 77.43921278415642 -24
86.02018692030366 76.7812264109447 -24
84.13152233052926 76.12324003773297 -24
82.24285774075487 75.46525366452124 -24
80.35419315098048 74.80726729130951 -24
78.46552856120609 74.14928091809779 -24
76.57686397143169 73.49129454488606 -24
74.6881993816573 72.83330817167433 -24
72.7995347918829 72.1753217984626 -24
70.91087020210851 71.51733542525088 -24
69.02220561233412 70.85934905203915 -24
67.13354102255973 70.20136267882742 -24
65.24487643278533 69.5433763056157 -24
63.35621184301094 68.88538993240397 -24
61.467547253236546 68.22740355919224 -24
59.57888266346215 67.56941718598051 -24
57.69021807368776 66.91143081276878 -24
55.80155348391337 66.25344443955706 -24
53.91288889413897 65.59545806634533 -24
52.02422430436458 64.9374716931336 -24
50.13555971459019 64.27948531992187 -24
48.246895124815794 63.62149894671015 -24
46.3582305350414 62.96351257349842 -24
44.46956594526701 62.30552620028669 -24
42.580901355492614 61.647539827074965 -24
40.69223676571822 60.98955345386324 -24
38.80357217594383 60.33156708065151 -24
36.914907586169434 59.67358070743978 -24
35.02624299639504 59.015594334228055 -24
33.13757840662065 58.35760796101633 -24
31.248913816846255 57.6996215878046 -24
29.36024922707186 57.04163521459287 -24
27.471584637297468 56.383648841381145 -24
25.582920047523075 55.72566246816942 -24
23.69425545774868 55.06767609495769 -24
21.80559086797429 54.40968972174596 -24
19.916926278199895 53.751703348534235 -24
18.028261688425502 53.09371697532251 -24
16.13959709865111 52.43573060211078 -24
14.250932508876714 51.77774422889905 -24
12.362267919102319 51.119757855687325 -24
10.473603329327924 50.4617714824756 -24
8.584938739553529 49.80378510926387 -24
6.696274149779135 49.14579873605214 -24
4.807609560004741 48.487812362840415 -24
2.9189449702303465 47.82982598962869 -24
1.0302803804559522 47.17183961641696 -24
-0.8583842093184422 46.51385324320523 -24
-2.7470487990928367 45.855866869993505 -24
-4.635713388867231 45.19788049678178 -24
-6.524377978641625 44.53989412357005 -24
-8.413042568416019 43.88190775035832 -24
-10.301707158190414 43.223921377146596 -24
-12.190371747964809 42.56593500393487 -24
-14.079036337739204 41.90794863072314 -24
-15.967700927513599 41.24996225751141 -24
-17.856365517287994 40.591975884299686 -24
-19.745030107062387 39.93398951108796 -24
-21.63369469683678 39.27600313787623 -24
-23.522359286611174 38.6180167646645 -24
-25.411023876385567 37.960030391452776 -24
-27.29968846615996 37.30204401824105 -24
-29.188353055934353 36.64405764502932 -24
-31.077017645708747 35.98607127181759 -24
-32.96568223548314 35.328084898605866 -24
-34.85434682525754 34.67009852539414 -24
-36.74301141503193 34.01211215218241 -24
-38.63167600480632 33.35412577897068 -24
-40.520340594580716 32.696139405758956 -24
-42.40900518435511 32.03815303254723 -24
-44.2976697741295 31.380166659335504 -24
-46.186334363903896 30.72218028612378 -24
-48.07499895367829 30.064193912912057 -24
-49.96366354345268 29.406207539700333 -24
-51.852328133227076 28.74822116648861 -24
-53.74099272300147 28.090234793276885 -24
-55.62965731277586 27.43224842006516 -24
-57.518321902550255 26.774262046853437 -24
-59.40698649232465 26.116275673641713 -24
-61.29565108209904 25.45828930042999 -24
-63.184315671873435 24.800302927218265 -24
-65.07298026164783 24.14231655400654 -24
-66.96164485142222 23.484330180794817 -24
-68.85030944119661 22.826343807583093 -24
-70.73897403097101 22.16835743437137 -24
-72.6276386207454 21.510371061159645 -24
-74.5163032105198 20.85238468794792 -24
-76.40496780029419 20.194398314736198 -24
-78.29363239006858 19.536411941524474 -24
-80.18229697984297 18.87842556831275 -24
-82.07096156961737 18.220439195101026 -24
-83.95962615939176 17.562452821889302 -24
-85.84829074916615 16.904466448677578 -24
-87.73695533894055 16.246480075465854 -24
-89.62561992871494 15.58849370225413 -24
-91.51428451848933 14.930507329042406 -24
-93.40294910826373 14.272520955830682 -24
-95.29161369803812 13.614534582618958 -24
-97.18027828781251 12.956548209407234 -24
-99.0689428775869 12.29856183619551 -24
-100.9576074673613 11.640575462983787 -24
-102.84627205713569 10.982589089772063 -24
-104.73493664691009 10.324602716560339 -24
-106.62360123668448 9.666616343348615 -24
-108.51226582645887 9.00862997013689 -24
-110.40093041623327 8.350643596925167 -24
-112.28959500600766 7.692657223713442 -24
-114.17825959578205 7.034670850501717 -24
-116.06692418555645 6.376684477289992 -24
-117.95558877533084 5.718698104078268 -24
-119.84425336510523 5.060711730866543 -24
-121.73291795487962 4.402725357654818 -24
-123.62158254465402 3.7447389844430936 -24
-125.51024713442841 3.0867526112313692 -24
-127.3989117242028 2.428766238019645 -24
-129.2875763139772 1.7707798648079205 -24
-131.17624090375162 1.1127934915961961 -24
-133.06490549352603 0.45480711838447163 -24
-134.95357008330043 -0.20317925482725285 -24
-136.84223467307484 -0.8611656280389773 -24
-138.73089926284925 -1.5191520012507018 -24
-140.61956385262366 -2.177138374462426 -24
-142.50822844239806 -2.8351247476741506 -24
-144.39689303217247 -3.493111120885875 -24
-146.28555762194688 -4.151097494097599 -24
-148.1742222117213 -4.809083867309324 -24
-150.0628868014957 -5.467070240521049 -24
-151.9515513912701 -6.125056613732774 -24
-153.8402159810445 -6.783042986944499 -24
-155.72888057081892 -7.441029360156223 -24
-157.61754516059332 -8.099015733367947 -24
-159.50620975036773 -8.757002106579671 -24
-161.39487434014214 -9.414988479791395 -24
-163.28353892991655 -10.07297485300312 -24
-165.17220351969095 -10.730961226214843 -24
-167.06086810946536 -11.388947599426567 -24
-168.94953269923977 -12.046933972638291 -24
-170.83819728901418 -12.704920345850015 -24
-172.72686187878858 -13.362906719061739 -24
-174.615526468563 -14.020893092273463 -24
-176.5041910583374 -14.678879465485187 -24
-178.3928556481118 -15.33686583869691 -24
-180.2815202378862 -15.994852211908634 -24
-182.17018482766062 -16.65283858512036 -24
-184.05884941743503 -17.310824958332084 -24
-185.94751400720943 -17.968811331543808 -24
-187.83617859698384 -18.626797704755532 -24
-189.72484318675825 -19.284784077967256 -24
-191.61350777653266 -19.94277045117898 -24
-193.50217236630706 -20.600756824390704 -24
-195.39083695608147 -21.258743197602428 -24
-197.27950154585588 -21.91672957081415 -24
-199.1681661356303 -22.574715944025876 -24
-201.0568307254047 -23.2327023172376 -24
-202.9454953151791 -23.890688690449323 -24
-204.8341599049535 -24.548675063661047 -24
-206.72282449472792 -25.20666143687277 -24
-208.61148908450232 -25.864647810084495 -24
-210.50015367427673 -26.52263418329622 -24
-212.38881826405114 -27.180620556507943 -24
-214.27748285382555 -27.838606929719667 -24
-216.16614744359995 -28.49659330293139 -24
-218.05481203337436 -29.154579676143115 -24
-219.94347662314877 -29.81256604935484 -24
-221.83214121292318 -30.470552422566563 -24
-223.72080580269758 -31.128538795778287 -24
-225.609470392472 -31.78652516899001 -24
-227.4981349822464 -32.44451154220174 -24
-229.3867995720208 -33.102497915413466 -24
-231.2754641617952 -33.76048428862519 -24
-233.16412875156962 -34.41847066183692 -24
-235.05279334134403 -35.07645703504865 -24
-236.94145793111844 -35.734443408260375 -24
-238.83012252089284 -36.3924297814721 -24
-240.71878711066725 -37.05041615468383 -24
-242.60745170044166 -37.70840252789556 -24
-244.49611629021607 -38.366388901107285 -24
-246.38478087999047 -39.02437527431901 -24
-248.27344546976488 -39.68236164753074 -24
-250.1621100595393 -40.34034802074247 -24
-252.0507746493137 -40.998334393954195 -24
-253.9394392390881 -41.65632076716592 -24
-255.8281038288625 -42.31430714037765 -24
-257.7167684186369 -42.97229351358938 -24
-259.6054330084113 -43.630279886801105 -24
-261.4940975981857 -44.28826626001283 -24
-263.3827621879601 -44.94625263322456 -24
-265.2714267777345 -45.60423900643629 -24
-267.1600913675089 -46.262225379648015 -24
-269.04875595728333 -46.92021175285974 -24
-270.93742054705774 -47.57819812607147 -24
-272.82608513683215 -48.2361844992832 -24
-274.71474972660656 -48.894170872494925 -24
-276.60341431638096 -49.55215724570665 -24
-278.49207890615537 -50.21014361891838 -24
-280.3807434959298 -50.86812999213011 -24
-282.2694080857042 -51.526116365341835 -24
-284.1580726754786 -52.18410273855356 -24
-286.046737265253 -52.84208911176529 -24
-287.9354018550274 -53.50007548497702 -24
-289.8240664448018 -54.158061858188745 -24
-291.7127310345762 -54.81604823140047 -24
-293.60139562435063 -55.4740346046122 -24
-295.49006021412504 -56.13202097782393 -24
-297.37872480389944 -56.790007351035655 -24
-299.26738939367385 -57.44799372424738 -24
-301.15605398344826 -58.10598009745911 -24
-303.04471857322267 -58.76396647067084 -24
-304.9333831629971 -59.421952843882565 -24
-306.8220477527715 -60.07993921709429 -24
-308.7107123425459 -60.73792559030602 -24
-310.5993769323203 -61.39591196351775 -24
-312.4880415220947 -62.053898336729475 -24
-314.3767061118691 -62.7118847099412 -24
-316.2653707016435 -63.36987108315293 -24
-318.1540352914179 -64.02785745636466 -24
-320.04269988119233 -64.68584382957638 -24
-321.93136447096674 -65.34383020278811 -24
-323.82002906074115 -66.00181657599984 -24
-325.70869365051556 -66.65980294921157 -24
-327.59735824028996 -67.3177893224233 -24
-329.48602283006437 -67.97577569563502 -24
-331.3746874198388 -68.63376206884675 -24
-333.2633520096132 -69.29174844205848 -24
-335.1520165993876 -69.9497348152702 -24
-337.040681189162 -70.60772118848193 -24
-338.9293457789364 -71.26570756169366 -24
-340.8180103687108 -71.92369393490539 -24
-342.7066749584852 -72.58168030811711 -24
-344.59533954825963 -73.23966668132884 -24
-346.48400413803404 -73.89765305454057 -24
-348.37266872780845 -74.5556394277523 -24
-350.26133331758285 -75.21362580096402 -24
-352.14999790735726 -75.87161217417575 -24
-354.03866249713167 -76.52959854738748 -24
-355.9273270869061 -77.1875849205992 -24
-357.8159916766805 -77.84557129381093 -24
-359.7046562664549 -78.50355766702266 -24
-361.5933208562293 -79.16154404023439 -24
-364 -80 -24
-364 -81.99805238635787 -24.088242061227163
-364 -83.99610477271574 -24.176484122454326
-364 -85.99415715907361 -24.26472618368149
-364 -87.99220954543148 -24.352968244908652
-364 -89.99026193178935 -24.441210306135815
-364 -91.98831431814722 -24.52945236736298
-364 -93.98636670450509 -24.61769442859014
-364 -95.98441909086296 -24.705936489817304
-364 -97.98247147722083 -24.794178551044467
-364 -99.9805238635787 -24.88242061227163
-364 -101.97857624993657 -24.970662673498794
-364 -103.97662863629444 -25.058904734725957
-364 -105.9746810226523 -25.14714679595312
-364 -107.97273340901017 -25.235388857180283
-364 -109.97078579536804 -25.323630918407446
-364 -111.96883818172591 -25.41187297963461
-364 -113.96689056808378 -25.500115040861772
-364 -115.96494295444165 -25.588357102088935
-364 -117.96299534079952 -25.676599163316098
-364 -119.96104772715739 -25.76484122454326
-364 -121.95910011351526 -25.853083285770424
-364 -123.95715249987313 -25.941325346997587
-364 -125.955204886231 -26.02956740822475
-364 -127.95325727258887 -26.117809469451913
-364 -129.95130965894674 -26.206051530679076
-364 -131.9493620453046 -26.29429359190624
-364 -133.94741443166248 -26.382535653133402
-364 -135.94546681802035 -26.470777714360565
-364 -137.94351920437822 -26.55901977558773
-364 -139.9415715907361 -26.64726183681489
-364 -141.93962397709396 -26.735503898042055
-364 -143.93767636345183 -26.823745959269218
-364 -145.9357287498097 -26.91198802049638
-364 -147.93378113616757 -27.000230081723544
-364 -149.93183352252544 -27.088472142950707
-364 -151.9298859088833 -27.17671420417787
-364 -153.92793829524118 -27.264956265405033
-364 -155.92599068159905 -27.353198326632196
-364 -157.92404306795692 -27.44144038785936
-364 -159.92209545431479 -27.529682449086522
-364 -161.92014784067266 -27.617924510313685
-364 -163.91820022703052 -27.706166571540848
-364 -165.9162526133884 -27.79440863276801
-364 -167.91430499974626 -27.882650693995174
-364 -169.91235738610413 -27.970892755222337
-364 -171.910409772462 -28.0591348164495
-364 -173.90846215881987 -28.147376877676663
-364 -175.90651454517774 -28.235618938903826
-364 -177.9045669315356 -28.32386100013099
-364 -179.90261931789348 -28.412103061358152
-364 -181.90067170425135 -28.500345122585315
-364 -183.89872409060922 -28.58858718381248
-364 -185.8967764769671 -28.67682924503964
-364 -187.89482886332496 -28.765071306266805
-364 -189.89288124968283 -28.853313367493968
-364 -191.8909336360407 -28.94155542872113
-364 -193.88898602239857 -29.029797489948294
-364 -195.88703840875644 -29.118039551175457
-364 -197.8850907951143 -29.20628161240262
-364 -199.88314318147218 -29.294523673629783
-364 -201.88119556783005 -29.382765734856946
-364 -203.87924795418792 -29.47100779608411
-364 -205.8773003405458 -29.559249857311272
-364 -207.87535272690366 -29.647491918538435
-364 -209.87340511326153 -29.735733979765598
-364 -211.8714574996194 -29.82397604099276
-364 -213.86950988597727 -29.912218102219924
-364 -215.86756227233514 -30.000460163447087
-364 -217.865614658693 -30.08870222467425
-364 -219.86366704505087 -30.176944285901413
-364 -221.86171943140874 -30.265186347128576
-364 -223.8597718177666 -30.35342840835574
-364 -225.85782420412448 -30.441670469582903
-364 -227.85587659048235 -30.529912530810066
-364 -229.85392897684022 -30.61815459203723
-364 -231.8519813631981 -30.70639665326439
-364 -233.85003374955596 -30.794638714491555
-364 -235.84808613591383 -30.882880775718718
-364 -237.8461385222717 -30.97112283694588
-364 -239.84419090862957 -31.059364898173044
-364 -241.84224329498744 -31.147606959400207
-364 -243.8402956813453 -31.23584902062737
-364 -245.83834806770318 -31.324091081854533
-364 -247.83640045406105 -31.412333143081696
-364 -249.83445284041892 -31.50057520430886
-364 -251.8325052267768 -31.588817265536022
-364 -253.83055761313466 -31.677059326763185
-364 -255.82860999949253 -31.76530138799035
-364 -257.8266623858504 -31.85354344921751
-364 -259.82471477220827 -31.941785510444674
-364 -261.82276715856614 -32.03002757167184
-364 -263.820819544924 -32.118269632899
-364 -265.8188719312819 -32.20651169412616
-364 -267.81692431763975 -32.29475375535333
-364 -269.8149767039976 -32.38299581658049
-364 -271.8130290903555 -32.47123787780765
-364 -273.81108147671335 -32.559479939034816
-364 -275.8091338630712 -32.64772200026198
-364 -277.8071862494291 -32.73596406148914
-364 -279.80523863578696 -32.824206122716305
-364 -281.80329102214483 -32.91244818394347
-364 -283.8013434085027 -33.00069024517063
-364 -285.7993957948606 -33.088932306397794
-364 -287.79744818121844 -33.17717436762496
-364 -289.7955005675763 -33.26541642885212
-364 -291.7935529539342 -33.35365849007928
-364 -293.79160534029205 -33.441900551306446
-364 -295.7896577266499 -33.53014261253361
-364 -297.7877101130078 -33.61838467376077
-364 -299.78576249936566 -33.706626734987935
-364 -301.78381488572353 -33.7948687962151
-364 -303.7818672720814 -33.88311085744226
-364 -305.77991965843927 -33.971352918669425
-364 -307.77797204479714 -34.05959497989659
-364 -309.776024431155 -34.14783704112375
-364 -311.7740768175129 -34.236079102350914
-364 -313.77212920387075 -34.32432116357808
-364 -315.7701815902286 -34.41256322480524
-364 -317.7682339765865 -34.5008052860324
-364 -319.76628636294436 -34.589047347259566
-364 -321.7643387493022 -34.67728940848673
-364 -323.7623911356601 -34.76553146971389
-364 -325.76044352201797 -34.853773530941055
-364 -327.75849590837583 -34.94201559216822
-364 -329.7565482947337 -35.03025765339538
-364 -331.7546006810916 -35.118499714622544
-364 -333.75265306744944 -35.20674177584971
-364 -335.7507054538073 -35.29498383707687
-364 -337.7487578401652 -35.38322589830403
-364 -339.74681022652305 -35.471467959531196
-364 -341.7448626128809 -35.55971002075836
-364 -343.7429149992388 -35.64795208198552
-364 -345.74096738559666 -35.736194143212686
-364 -347.73901977195453 -35.82443620443985
-364 -349.7370721583124 -35.91267826566701
-364 -351.73512454467027 -36.000920326894175
-364 -353.73317693102814 -36.08916238812134
-364 -355.731229317386 -36.1774044493485
-364 -357.7292817037439 -36.265646510575664
-364 -359.72733409010175 -36.35388857180283
-364 -361.7253864764596 -36.44213063302999
-364 -363.7234388628175 -36.53037269425715
-364 -365.72149124917536 -36.618614755484316
-364 -367.7195436355332 -36.70685681671148
-364 -369.7175960218911 -36.79509887793864
-364 -371.71564840824897 -36.883340939165805
-364 -373.71370079460684 -36.97158300039297
-364 -375.7117531809647 -37.05982506162013
-364 -377.7098055673226 -37.148067122847294
-364 -379.70785795368045 -37.23630918407446
-364 -381.7059103400383 -37.32455124530162
-364 -383.7039627263962 -37.41279330652878
-364 -385.70201511275405 -37.50103536775595
-364 -387.7000674991119 -37.58927742898311
-364 -389.6981198854698 -37.67751949021027
-364 -391.69617227182766 -37.765761551437436
-364 -393.69422465818553 -37.8540036126646
-364 -395.6922770445434 -37.94224567389176
-364 -397.6903294309013 -38.030487735118925
-364 -399.68838181725914 -38.11872979634609
-364 -401.686434203617 -38.20697185757325
-364 -403.6844865899749 -38.295213918800414
-364 -405.68253897633275 -38.38345598002758
-364 -407.6805913626906 -38.47169804125474
-364 -409.6786437490485 -38.5599401024819
-364 -411.67669613540636 -38.648182163709066
-364 -413.67474852176423 -38.73642422493623
-364 -415.6728009081221 -38.82466628616339
-364 -417.67085329447997 -38.912908347390555
-364 -419.66890568083784 -39.00115040861772
-364 -421.6669580671957 -39.08939246984488
-364 -423.6650104535536 -39.177634531072044
-364 -425.66306283991145 -39.26587659229921
-364 -427.6611152262693 -39.35411865352637
-364 -429.6591676126272 -39.442360714753534
-364 -431.65721999898506 -39.5306027759807
-364 -433.6552723853429 -39.61884483720786
-364 -435.6533247717008 -39.70708689843502
-364 -437.65137715805866 -39.795328959662186
-364 -439.64942954441653 -39.88357102088935
-364 -441.6474819307744 -39.97181308211651
-364 -443.6455343171323 -40.060055143343675
-364 -445.64358670349014 -40.14829720457084
-364 -447.641639089848 -40.236539265798
-364 -449.6396914762059 -40.324781327025164
-364 -451.63774386256375 -40.41302338825233
-364 -453.6357962489216 -40.50126544947949
-364 -455.6338486352795 -40.58950751070665
-364 -457.63190102163736 -40.677749571933816
-364 -459.62995340799523 -40.76599163316098
-364 -461.6280057943531 -40.85423369438814
-364 -463.62605818071097 -40.942475755615305
-364 -465.62411056706884 -41.03071781684247
-364 -467.6221629534267 -41.11895987806963
-364 -469.6202153397846 -41.207201939296795
-364 -471.61826772614245 -41.29544400052396
-364 -473.6163201125003 -41.38368606175112
-364 -475.6143724988582 -41.471928122978284
-364 -477.61242488521606 -41.56017018420545
-364 -479.6104772715739 -41.64841224543261
-364 -481.6085296579318 -41.73665430665977
-364 -483.60658204428967 -41.824896367886936
-364 -485.60463443064754 -41.9131384291141
-364 -487.6026868170054 -42.00138049034126
-364 -489.6007392033633 -42.089622551568425
-364 -491.59879158972115 -42.17786461279559
-364 -493.596843976079 -42.26610667402275
-364 -495.5948963624369 -42.354348735249914
-364 -497.59294874879475 -42.44259079647708
-364 -499.5910011351526 -42.53083285770424
-364 -501.5890535215105 -42.6190749189314
-364 -503.58710590786836 -42.707316980158566
-364 -505.58515829422623 -42.79555904138573
-364 -507.5832106805841 -42.88380110261289
-364 -509.581263066942 -42.972043163840056
-364 -511.57931545329984 -43.06028522506722
-364 -513.5773678396578 -43.14852728629438
-364 -515.5754202260157 -43.236769347521545
-364 -517.5734726123736 -43.32501140874871
-364 -519.5715249987315 -43.41325346997587
-364 -521.5695773850895 -43.501495531203034
-364 -523.5676297714474 -43.5897375924302
-364 -525.5656821578053 -43.67797965365736
-364 -527.5637345441633 -43.76622171488452
-364 -529.5617869305212 -43.854463776111686
-364 -531.5598393168791 -43.94270583733885
-364 -533.557891703237 -44.03094789856601
-364 -535.555944089595 -44.119189959793175
-364 -537.5539964759529 -44.20743202102034
-364 -539.5520488623108 -44.2956740822475
-364 -541.5501012486687 -44.383916143474664
-364 -543.5481536350267 -44.47215820470183
-364 -545.5462060213846 -44.56040026592899
-364 -547.5442584077425 -44.64864232715615
-364 -549.5423107941004 -44.73688438838332
-364 -551.5403631804584 -44.82512644961048
-364 -553.5384155668163 -44.91336851083764
-364 -555.5364679531742 -45.001610572064806
-364 -557.5345203395322 -45.08985263329197
-364 -559.5325727258901 -45.17809469451913
-364 -561.530625112248 -45.266336755746295
-364 -563.5286774986059 -45.35457881697346
-364 -565.5267298849639 -45.44282087820062
-364 -567.5247822713218 -45.531062939427784
-364 -569.5228346576797 -45.61930500065495
-364 -571.5208870440376 -45.70754706188211
-364 -573.5189394303956 -45.79578912310927
-364 -575.5169918167535 -45.884031184336436
-364 -577.5150442031114 -45.9722732455636
-364 -579.5130965894693 -46.06051530679076
-364 -581.5111489758273 -46.148757368017925
-364 -583.5092013621852 -46.23699942924509
-364 -585.5072537485431 -46.32524149047225
-364 -587.505306134901 -46.413483551699414
-364 -589.503358521259 -46.50172561292658
-364 -591.5014109076169 -46.58996767415374
-364 -593.4994632939748 -46.678209735380904
-364 -595.4975156803328 -46.76645179660807
-364 -597.4955680666907 -46.85469385783523
-364 -599.4936204530486 -46.94293591906239
-364 -601.4916728394065 -47.031177980289556
-364 -603.4897252257645 -47.11942004151672
-364 -605.4877776121224 -47.20766210274388
-364 -607.4858299984803 -47.295904163971045
-364 -609.4838823848382 -47.38414622519821
-364 -611.4819347711962 -47.47238828642537
-364 -613.4799871575541 -47.560630347652534
-364 -615.478039543912 -47.6488724088797
-364 -617.47609193027 -47.73711447010686
-364 -619.4741443166279 -47.82535653133402
-364 -621.4721967029858 -47.913598592561186
-364 -623.4702490893437 -48.00184065378835
-364 -625.4683014757017 -48.09008271501551
-364 -627.4663538620596 -48.178324776242675
-364 -629.4644062484175 -48.26656683746984
-364 -631.4624586347754 -48.354808898697
-364 -633.4605110211334 -48.443050959924165
-364 -635.4585634074913 -48.53129302115133
-364 -637.4566157938492 -48.61953508237849
-364 -639.4546681802071 -48.707777143605654
-364 -641.4527205665651 -48.79601920483282
-364 -643.450772952923 -48.88426126605998
-364 -645.4488253392809 -48.97250332728714
-364 -647.4468777256388 -49.060745388514306
-364 -649.4449301119968 -49.14898744974147
-364 -651.4429824983547 -49.23722951096863
-364 -653.4410348847126 -49.325471572195795
-364 -655.4390872710705 -49.41371363342296
-364 -657.4371396574285 -49.50195569465012
-364 -659.4351920437864 -49.590197755877284
-364 -661.4332444301443 -49.67843981710445
-364 -663.4312968165023 -49.76668187833161
-364 -665.4293492028602 -49.85492393955877
-364 -667.4274015892181 -49.943166000785936
-364 -669.425453975576 -50.0314080620131
-364 -671.423506361934 -50.11965012324026
-364 -673.4215587482919 -50.207892184467426
-364 -675.4196111346498 -50.29613424569459
-364 -677.4176635210077 -50.38437630692175
-364 -679.4157159073657 -50.472618368148915
-364 -681.4137682937236 -50.56086042937608
-364 -683.4118206800815 -50.64910249060324
-364 -685.4098730664394 -50.737344551830404
-364 -687.4079254527974 -50.82558661305757
-364 -689.4059778391553 -50.91382867428473
-364 -691.4040302255132 -51.00207073551189
-364 -693.4020826118712 -51.090312796739056
-364 -695.4001349982291 -51.17855485796622
-364 -697.398187384587 -51.26679691919338
-364 -699.3962397709449 -51.355038980420545
-364 -701.3942921573029 -51.44328104164771
-364 -703.3923445436608 -51.53152310287487
-364 -705.3903969300187 -51.619765164102034
-364 -707.3884493163766 -51.7080072253292
-364 -709.3865017027346 -51.79624928655636
-364 -711.3845540890925 -51.88449134778352
-364 -713.3826064754504 -51.97273340901069
-364 -715.3806588618083 -52.06097547023785
-364 -717.3787112481663 -52.14921753146501
-364 -719.3767636345242 -52.237459592692176
-364 -721.3748160208821 -52.32570165391934
-364 -723.37286840724 -52.4139437151465
-364 -725.370920793598 -52.502185776373665
-364 -727.3689731799559 -52.59042783760083
-364 -729.3670255663138 -52.67866989882799
-364 -731.3650779526718 -52.766911960055154
-364 -733.3631303390297 -52.85515402128232
-364 -735.3611827253876 -52.94339608250948
-364 -737.3592351117455 -53.03163814373664
-364 -739.3572874981035 -53.119880204963806
-364 -741.3553398844614 -53.20812226619097
-364 -743.3533922708193 -53.29636432741813
-364 -745.3514446571772 -53.384606388645295
-364 -747.3494970435352 -53.47284844987246
-364 -749.3475494298931 -53.56109051109962
-364 -751.345601816251 -53.649332572326784
-364 -753.343654202609 -53.73757463355395
-364 -755.3417065889669 -53.82581669478111
-364 -757.3397589753248 -53.914058756008274
-364 -759.3378113616827 -54.00230081723544
-364 -761.3358637480407 -54.0905428784626
-364 -763.3339161343986 -54.17878493968976
-364 -765.3319685207565 -54.267027000916926
-364 -767.3300209071144 -54.35526906214409
-364 -769.3280732934724 -54.44351112337125
-364 -771.3261256798303 -54.531753184598415
-364 -773.3241780661882 -54.61999524582558
-364 -775.3222304525461 -54.70823730705274
-364 -777.3202828389041 -54.796479368279904
-364 -779.318335225262 -54.88472142950707
-364 -781.3163876116199 -54.97296349073423
-364 -783.3144399979778 -55.06120555196139
-364 -785.3124923843358 -55.149447613188556
-364 -787.3105447706937 -55.23768967441572
-364 -789.3085971570516 -55.32593173564288
-364 -791.3066495434095 -55.414173796870045
-364 -793.3047019297675 -55.50241585809721
-364 -795.3027543161254 -55.59065791932437
-364 -797.3008067024833 -55.678899980551535
-364 -799.2988590888413 -55.7671420417787
-364 -801.2969114751992 -55.85538410300586
-364 -803.2949638615571 -55.943626164233024
-364 -805.293016247915 -56.03186822546019
-364 -807.291068634273 -56.12011028668735
-364 -809.2891210206309 -56.20835234791451
-364 -811.2871734069888 -56.296594409141676
-364 -813.2852257933467 -56.38483647036884
-364 -815.2832781797047 -56.473078531596
-364 -817.2813305660626 -56.561320592823165
-364 -819.2793829524205 -56.64956265405033
-364 -821.2774353387784 -56.73780471527749
-364 -823.2754877251364 -56.826046776504654
-364 -825.2735401114943 -56.91428883773182
-364 -827.2715924978522 -57.00253089895898
-364 -829.2696448842102 -57.09077296018614
-364 -831.2676972705681 -57.179015021413306
-364 -833.265749656926 -57.26725708264047
-364 -835.2638020432839 -57.35549914386763
-364 -837.2618544296419 -57.443741205094796
-364 -839.2599068159998 -57.53198326632196
-364 -841.2579592023577 -57.62022532754912
-364 -843.2560115887156 -57.708467388776285
-364 -845.2540639750736 -57.79670945000345
-364 -847.2521163614315 -57.88495151123061
