1322.000000 1744.000000 860.000000
1320.000000 1744.000000 860.000000
1318.000000 1744.000000 860.000000
1316.000000 1744.000000 860.000000
1314.000000 1744.000000 860.000000
1312.000000 1744.000000 860.000000
1310.000000 1744.000000 860.000000
1308.000000 1744.000000 860.000000
1306.000000 1744.000000 860.000000
1304.000000 1744.000000 860.000000
1302.000000 1744.000000 860.000000
1300.000000 1744.000000 860.000000
1298.000000 1744.000000 860.000000
1296.000000 1744.000000 860.000000
1294.000000 1744.000000 860.000000
1292.000000 1744.000000 860.000000
1290.000000 1744.000000 860.000000
1288.000000 1744.000000 860.000000
1286.000000 1744.000000 860.000000
1284.000000 1744.000000 860.000000
1282.000000 1744.000000 860.000000
1280.000000 1744.000000 860.000000
1278.000000 1744.000000 860.000000
1276.000000 1744.000000 860.000000
1274.000000 1744.000000 860.000000
1272.000000 1744.000000 860.000000
1270.000000 1744.000000 860.000000
1268.000000 1744.000000 860.000000
1266.000000 1744.000000 860.000000
1264.000000 1744.000000 860.000000
1262.000000 1744.000000 860.000000
1260.000000 1744.000000 860.000000
1258.000000 1744.000000 860.000000
1256.000000 1744.000000 860.000000
1254.000000 1744.000000 860.000000
1252.000000 1744.000000 860.000000
1248.000000 1744.000000 860.000000
1246.936764 1742.306031 860.000000
1245.873529 1740.612063 860.000000
1244.810293 1738.918094 860.000000
1243.747057 1737.224125 860.000000
1242.683822 1735.530157 860.000000
1241.620586 1733.836188 860.000000
1240.557350 1732.142219 860.000000
1239.494115 1730.448250 860.000000
1238.430879 1728.754282 860.000000
1237.367643 1727.060313 860.000000
1236.304408 1725.366344 860.000000
1235.241172 1723.672376 860.000000
1234.177936 1721.978407 860.000000
1233.114701 1720.284438 860.000000
1232.051465 1718.590470 860.000000
1230.988229 1716.896501 860.000000
1229.924994 1715.202532 860.000000
1228.861758 1713.508564 860.000000
1227.798522 1711.814595 860.000000
1226.735287 1710.120626 860.000000
1225.672051 1708.426658 860.000000
1224.608815 1706.732689 860.000000
1223.545580 1705.038720 860.000000
1222.482344 1703.344751 860.000000
1221.419108 1701.650783 860.000000
1220.355873 1699.956814 860.000000
1219.292637 1698.262845 860.000000
1218.229401 1696.568877 860.000000
1217.166166 1694.874908 860.000000
1216.102930 1693.180939 860.000000
1215.039694 1691.486971 860.000000
1213.976459 1689.793002 860.000000
1212.913223 1688.099033 860.000000
1211.849987 1686.405065 860.000000
1210.786752 1684.711096 860.000000
1209.723516 1683.017127 860.000000
1208.660280 1681.323159 860.000000
1207.597045 1679.629190 860.000000
1206.533809 1677.935221 860.000000
1205.470573 1676.241252 860.000000
1204.407338 1674.547284 860.000000
1203.344102 1672.853315 860.000000
1202.280866 1671.159346 860.000000
1201.217631 1669.465378 860.000000
1200.154395 1667.771409 860.000000
1199.091159 1666.077440 860.000000
1198.027924 1664.383472 860.000000
1196.964688 1662.689503 860.000000
1195.901452 1660.995534 860.000000
1194.838217 1659.301566 860.000000
1193.774981 1657.607597 860.000000
1192.711745 1655.913628 860.000000
1191.648510 1654.219660 860.000000
1190.585274 1652.525691 860.000000
1189.522038 1650.831722 860.000000
1188.458803 1649.137753 860.000000
1187.395567 1647.443785 860.000000
1186.332331 1645.749816 860.000000
1185.269096 1644.055847 860.000000
1184.205860 1642.361879 860.000000
1183.142624 1640.667910 860.000000
1182.079389 1638.973941 860.000000
1181.016153 1637.279973 860.000000
1179.952917 1635.586004 860.000000
1178.889682 1633.892035 860.000000
1177.826446 1632.198067 860.000000
1176.763210 1630.504098 860.000000
1175.699975 1628.810129 860.000000
1174.636739 1627.116160 860.000000
1173.573503 1625.422192 860.000000
1172.510268 1623.728223 860.000000
1171.447032 1622.034254 860.000000
1170.383796 1620.340286 860.000000
1169.320561 1618.646317 860.000000
1168.257325 1616.952348 860.000000
1167.194089 1615.258380 860.000000
1166.130854 1613.564411 860.000000
1165.067618 1611.870442 860.000000
1164.004382 1610.176474 860.000000
1162.941147 1608.482505 860.000000
1161.877911 1606.788536 860.000000
1160.814675 1605.094568 860.000000
1159.751440 1603.400599 860.000000
1158.688204 1601.706630 860.000000
1157.624968 1600.012661 860.000000
1156.561733 1598.318693 860.000000
1155.498497 1596.624724 860.000000
1154.435261 1594.930755 860.000000
1153.372026 1593.236787 860.000000
1152.308790 1591.542818 860.000000
1151.245554 1589.848849 860.000000
1150.182319 1588.154881 860.000000
1149.119083 1586.460912 860.000000
1148.055847 1584.766943 860.000000
1146.992612 1583.072975 860.000000
1145.929376 1581.379006 860.000000
1144.866140 1579.685037 860.000000
1143.802905 1577.991069 860.000000
1142.739669 1576.297100 860.000000
1141.676433 1574.603131 860.000000
1140.613198 1572.909162 860.000000
1139.549962 1571.215194 860.000000
1138.486726 1569.521225 860.000000
1137.423491 1567.827256 860.000000
1136.360255 1566.133288 860.000000
1135.297019 1564.439319 860.000000
1134.233784 1562.745350 860.000000
1133.170548 1561.051382 860.000000
1132.107312 1559.357413 860.000000
1131.044077 1557.663444 860.000000
1129.980841 1555.969476 860.000000
1128.917605 1554.275507 860.000000
1127.854370 1552.581538 860.000000
1126.791134 1550.887569 860.000000
1125.727898 1549.193601 860.000000
1124.664663 1547.499632 860.000000
1123.601427 1545.805663 860.000000
1122.538191 1544.111695 860.000000
1121.474956 1542.417726 860.000000
1120.411720 1540.723757 860.000000
1119.348484 1539.029789 860.000000
1118.285249 1537.335820 860.000000
1117.222013 1535.641851 860.000000
1116.158777 1533.947883 860.000000
1115.095542 1532.253914 860.000000
1114.032306 1530.559945 860.000000
1112.969070 1528.865977 860.000000
1111.905835 1527.172008 860.000000
1110.842599 1525.478039 860.000000
1109.779363 1523.784070 860.000000
1108.716128 1522.090102 860.000000
1107.652892 1520.396133 860.000000
1106.589656 1518.702164 860.000000
1105.526421 1517.008196 860.000000
1104.463185 1515.314227 860.000000
1103.399949 1513.620258 860.000000
1102.336714 1511.926290 860.000000
1101.273478 1510.232321 860.000000
1100.210242 1508.538352 860.000000
1099.147007 1506.844384 860.000000
1098.083771 1505.150415 860.000000
1097.020535 1503.456446 860.000000
1095.957300 1501.762478 860.000000
1094.894064 1500.068509 860.000000
1093.830828 1498.374540 860.000000
1092.767593 1496.680571 860.000000
1091.704357 1494.986603 860.000000
1090.641121 1493.292634 860.000000
1089.577886 1491.598665 860.000000
1088.514650 1489.904697 860.000000
1087.451414 1488.210728 860.000000
1086.388179 1486.516759 860.000000
1085.324943 1484.822791 860.000000
1084.261707 1483.128822 860.000000
1083.198472 1481.434853 860.000000
1082.135236 1479.740885 860.000000
1081.072000 1478.046916 860.000000
1080.008765 1476.352947 860.000000
1078.945529 1474.658979 860.000000
1077.882293 1472.965010 860.000000
1076.819058 1471.271041 860.000000
1075.755822 1469.577072 860.000000
1074.692586 1467.883104 860.000000
1073.629351 1466.189135 860.000000
1072.566115 1464.495166 860.000000
1071.502879 1462.801198 860.000000
1070.439644 1461.107229 860.000000
1069.376408 1459.413260 860.000000
1068.313172 1457.719292 860.000000
1067.249937 1456.025323 860.000000
1066.186701 1454.331354 860.000000
1065.123465 1452.637386 860.000000
1064.060230 1450.943417 860.000000
1062.996994 1449.249448 860.000000
1061.933758 1447.555479 860.000000
1060.870523 1445.861511 860.000000
1059.807287 1444.167542 860.000000
1058.744051 1442.473573 860.000000
1057.680816 1440.779605 860.000000
1056.617580 1439.085636 860.000000
1055.554344 1437.391667 860.000000
1054.491109 1435.697699 860.000000
1053.427873 1434.003730 860.000000
1052.364637 1432.309761 860.000000
1051.301402 1430.615793 860.000000
1050.238166 1428.921824 860.000000
1049.174930 1427.227855 860.000000
1048.111695 1425.533887 860.000000
1047.048459 1423.839918 860.000000
1045.985223 1422.145949 860.000000
1044.921988 1420.451980 860.000000
1043.858752 1418.758012 860.000000
1042.795516 1417.064043 860.000000
1041.732281 1415.370074 860.000000
1040.669045 1413.676106 860.000000
1039.605809 1411.982137 860.000000
1038.542574 1410.288168 860.000000
1037.479338 1408.594200 860.000000
1036.416102 1406.900231 860.000000
1035.352867 1405.206262 860.000000
1034.289631 1403.512294 860.000000
1033.226395 1401.818325 860.000000
1032.163160 1400.124356 860.000000
1031.099924 1398.430388 860.000000
1030.036688 1396.736419 860.000000
1028.973453 1395.042450 860.000000
1027.910217 1393.348481 860.000000
1026.846981 1391.654513 860.000000
1025.783746 1389.960544 860.000000
1024.720510 1388.266575 860.000000
1023.657274 1386.572607 860.000000
1022.594039 1384.878638 860.000000
1021.530803 1383.184669 860.000000
1020.467567 1381.490701 860.000000
1019.404332 1379.796732 860.000000
1018.341096 1378.102763 860.000000
1017.277860 1376.408795 860.000000
1016.214625 1374.714826 860.000000
1015.151389 1373.020857 860.000000
1014.088153 1371.326889 860.000000
1013.024918 1369.632920 860.000000
1011.961682 1367.938951 860.000000
1010.898446 1366.244982 860.000000
1009.835211 1364.551014 860.000000
1008.771975 1362.857045 860.000000
1007.708739 1361.163076 860.000000
1006.645504 1359.469108 860.000000
1005.582268 1357.775139 860.000000
1004.519032 1356.081170 860.000000
1003.455797 1354.387202 860.000000
1002.392561 1352.693233 860.000000
1001.329325 1350.999264 860.000000
1000.266090 1349.305296 860.000000
999.202854 1347.611327 860.000000
998.139618 1345.917358 860.000000
997.076383 1344.223389 860.000000
996.013147 1342.529421 860.000000
994.949911 1340.835452 860.000000
993.886676 1339.141483 860.000000
992.823440 1337.447515 860.000000
991.760204 1335.753546 860.000000
990.696969 1334.059577 860.000000
989.633733 1332.365609 860.000000
988.570497 1330.671640 860.000000
987.507262 1328.977671 860.000000
986.444026 1327.283703 860.000000
985.380790 1325.589734 860.000000
984.317555 1323.895765 860.000000
983.254319 1322.201797 860.000000
982.191083 1320.507828 860.000000
981.127848 1318.813859 860.000000
980.064612 1317.119890 860.000000
979.001376 1315.425922 860.000000
977.938141 1313.731953 860.000000
976.874905 1312.037984 860.000000
975.811669 1310.344016 860.000000
974.748434 1308.650047 860.000000
973.685198 1306.956078 860.000000
972.621962 1305.262110 860.000000
971.558727 1303.568141 860.000000
970.495491 1301.874172 860.000000
969.432255 1300.180204 860.000000
968.369020 1298.486235 860.000000
967.305784 1296.792266 860.000000
966.242548 1295.098298 860.000000
965.179313 1293.404329 860.000000
964.116077 1291.710360 860.000000
963.052841 1290.016391 860.000000
961.989606 1288.322423 860.000000
960.926370 1286.628454 860.000000
959.863134 1284.934485 860.000000
958.799899 1283.240517 860.000000
957.736663 1281.546548 860.000000
956.673427 1279.852579 860.000000
955.610192 1278.158611 860.000000
954.546956 1276.464642 860.000000
953.483720 1274.770673 860.000000
952.420485 1273.076705 860.000000
951.357249 1271.382736 860.000000
950.294013 1269.688767 860.000000
949.230778 1267.994798 860.000000
948.167542 1266.300830 860.000000
947.104306 1264.606861 860.000000
946.041071 1262.912892 860.000000
944.977835 1261.218924 860.000000
943.914599 1259.524955 860.000000
942.851364 1257.830986 860.000000
941.788128 1256.137018 860.000000
940.724892 1254.443049 860.000000
939.661657 1252.749080 860.000000
938.598421 1251.055112 860.000000
937.535185 1249.361143 860.000000
936.471950 1247.667174 860.000000
935.408714 1245.973206 860.000000
934.345478 1244.279237 860.000000
933.282243 1242.585268 860.000000
932.219007 1240.891299 860.000000
931.155771 1239.197331 860.000000
930.092536 1237.503362 860.000000
929.029300 1235.809393 860.000000
927.966064 1234.115425 860.000000
926.902829 1232.421456 860.000000
925.839593 1230.727487 860.000000
924.776357 1229.033519 860.000000
923.713122 1227.339550 860.000000
922.649886 1225.645581 860.000000
921.586650 1223.951613 860.000000
920.523415 1222.257644 860.000000
919.460179 1220.563675 860.000000
918.396943 1218.869707 860.000000
917.333708 1217.175738 860.000000
916.270472 1215.481769 860.000000
915.207236 1213.787800 860.000000
914.144001 1212.093832 860.000000
913.080765 1210.399863 860.000000
912.017529 1208.705894 860.000000
910.954294 1207.011926 860.000000
909.891058 1205.317957 860.000000
908.827822 1203.623988 860.000000
907.764587 1201.930020 860.000000
906.701351 1200.236051 860.000000
905.638115 1198.542082 860.000000
904.574880 1196.848114 860.000000
903.511644 1195.154145 860.000000
902.448408 1193.460176 860.000000
901.385173 1191.766208 860.000000
900.321937 1190.072239 860.000000
899.258701 1188.378270 860.000000
898.195466 1186.684301 860.000000
897.132230 1184.990333 860.000000
896.068994 1183.296364 860.000000
895.005759 1181.602395 860.000000
893.942523 1179.908427 860.000000
892.879287 1178.214458 860.000000
891.816052 1176.520489 860.000000
890.752816 1174.826521 860.000000
889.689580 1173.132552 860.000000
888.626345 1171.438583 860.000000
887.563109 1169.744615 860.000000
886.499873 1168.050646 860.000000
885.436638 1166.356677 860.000000
884.373402 1164.662708 860.000000
883.310166 1162.968740 860.000000
882.246931 1161.274771 860.000000
881.183695 1159.580802 860.000000
880.120459 1157.886834 860.000000
879.057224 1156.192865 860.000000
877.993988 1154.498896 860.000000
876.930752 1152.804928 860.000000
875.867517 1151.110959 860.000000
874.804281 1149.416990 860.000000
873.741045 1147.723022 860.000000
872.677810 1146.029053 860.000000
871.614574 1144.335084 860.000000
870.551338 1142.641116 860.000000
869.488103 1140.947147 860.000000
868.424867 1139.253178 860.000000
867.361631 1137.559209 860.000000
866.298396 1135.865241 860.000000
865.235160 1134.171272 860.000000
864.171924 1132.477303 860.000000
863.108689 1130.783335 860.000000
862.045453 1129.089366 860.000000
860.982217 1127.395397 860.000000
859.918982 1125.701429 860.000000
858.855746 1124.007460 860.000000
857.792510 1122.313491 860.000000
856.729275 1120.619523 860.000000
855.666039 1118.925554 860.000000
854.602803 1117.231585 860.000000
853.539568 1115.537617 860.000000
852.476332 1113.843648 860.000000
851.413096 1112.149679 860.000000
850.349861 1110.455710 860.000000
849.286625 1108.761742 860.000000
848.223389 1107.067773 860.000000
847.160154 1105.373804 860.000000
846.096918 1103.679836 860.000000
845.033682 1101.985867 860.000000
843.970447 1100.291898 860.000000
842.907211 1098.597930 860.000000
841.843975 1096.903961 860.000000
840.780740 1095.209992 860.000000
839.717504 1093.516024 860.000000
838.654268 1091.822055 860.000000
837.591033 1090.128086 860.000000
836.527797 1088.434118 860.000000
835.464561 1086.740149 860.000000
834.401326 1085.046180 860.000000
833.338090 1083.352211 860.000000
832.274854 1081.658243 860.000000
831.211619 1079.964274 860.000000
830.148383 1078.270305 860.000000
829.085147 1076.576337 860.000000
828.021912 1074.882368 860.000000
826.958676 1073.188399 860.000000
825.895440 1071.494431 860.000000
824.832205 1069.800462 860.000000
823.768969 1068.106493 860.000000
822.705733 1066.412525 860.000000
821.642498 1064.718556 860.000000
820.579262 1063.024587 860.000000
819.516026 1061.330618 860.000000
818.452791 1059.636650 860.000000
817.389555 1057.942681 860.000000
816.326319 1056.248712 860.000000
815.263084 1054.554744 860.000000
814.199848 1052.860775 860.000000
813.136613 1051.166806 860.000000
812.073377 1049.472838 860.000000
811.010141 1047.778869 860.000000
809.946906 1046.084900 860.000000
808.883670 1044.390932 860.000000
807.820434 1042.696963 860.000000
806.757199 1041.002994 860.000000
805.693963 1039.309026 860.000000
804.630727 1037.615057 860.000000
803.567492 1035.921088 860.000000
802.504256 1034.227119 860.000000
801.441020 1032.533151 860.000000
800.377785 1030.839182 860.000000
799.314549 1029.145213 860.000000
798.251313 1027.451245 860.000000
797.188078 1025.757276 860.000000
796.124842 1024.063307 860.000000
795.061606 1022.369339 860.000000
793.998371 1020.675370 860.000000
792.935135 1018.981401 860.000000
791.871899 1017.287433 860.000000
790.808664 1015.593464 860.000000
789.745428 1013.899495 860.000000
788.682192 1012.205527 860.000000
787.618957 1010.511558 860.000000
786.555721 1008.817589 860.000000
785.492485 1007.123620 860.000000
784.429250 1005.429652 860.000000
783.366014 1003.735683 860.000000
782.302778 1002.041714 860.000000
781.239543 1000.347746 860.000000
780.176307 998.653777 860.000000
779.113071 996.959808 860.000000
778.049836 995.265840 860.000000
776.000000 992.000000 860.000000
775.064225 990.232424 860.000000
774.128449 988.464848 860.000000
773.192674 986.697273 860.000000
772.256898 984.929697 860.000000
771.321123 983.162121 860.000000
770.385347 981.394545 860.000000
769.449572 979.626969 860.000000
768.513796 977.859393 860.000000
767.578021 976.091818 860.000000
766.642246 974.324242 860.000000
765.706470 972.556666 860.000000
764.770695 970.789090 860.000000
763.834919 969.021514 860.000000
762.899144 967.253938 860.000000
761.963368 965.486363 860.000000
761.027593 963.718787 860.000000
760.091818 961.951211 860.000000
759.156042 960.183635 860.000000
758.220267 958.416059 860.000000
757.284491 956.648483 860.000000
756.348716 954.880908 860.000000
755.412940 953.113332 860.000000
754.477165 951.345756 860.000000
753.541389 949.578180 860.000000
752.605614 947.810604 860.000000
751.669839 946.043028 860.000000
750.734063 944.275453 860.000000
749.798288 942.507877 860.000000
748.862512 940.740301 860.000000
747.926737 938.972725 860.000000
746.990961 937.205149 860.000000
746.055186 935.437573 860.000000
745.119410 933.669998 860.000000
744.183635 931.902422 860.000000
743.247860 930.134846 860.000000
742.312084 928.367270 860.000000
741.376309 926.599694 860.000000
740.440533 924.832118 860.000000
739.504758 923.064543 860.000000
738.568982 921.296967 860.000000
737.633207 919.529391 860.000000
736.697431 917.761815 860.000000
735.761656 915.994239 860.000000
734.825881 914.226663 860.000000
733.890105 912.459088 860.000000
732.954330 910.691512 860.000000
732.018554 908.923936 860.000000
731.082779 907.156360 860.000000
730.147003 905.388784 860.000000
729.211228 903.621208 860.000000
728.275453 901.853633 860.000000
727.339677 900.086057 860.000000
726.403902 898.318481 860.000000
725.468126 896.550905 860.000000
724.532351 894.783329 860.000000
723.596575 893.015753 860.000000
722.660800 891.248178 860.000000
721.725024 889.480602 860.000000
720.789249 887.713026 860.000000
719.853474 885.945450 860.000000
718.917698 884.177874 860.000000
717.981923 882.410298 860.000000
717.046147 880.642723 860.000000
716.110372 878.875147 860.000000
715.174596 877.107571 860.000000
714.238821 875.339995 860.000000
713.303045 873.572419 860.000000
712.367270 871.804843 860.000000
711.431495 870.037268 860.000000
710.495719 868.269692 860.000000
709.559944 866.502116 860.000000
708.624168 864.734540 860.000000
707.688393 862.966964 860.000000
706.752617 861.199388 860.000000
705.816842 859.431813 860.000000
704.881066 857.664237 860.000000
703.945291 855.896661 860.000000
703.009516 854.129085 860.000000
702.073740 852.361509 860.000000
701.137965 850.593933 860.000000
700.202189 848.826358 860.000000
699.266414 847.058782 860.000000
698.330638 845.291206 860.000000
697.394863 843.523630 860.000000
696.459088 841.756054 860.000000
695.523312 839.988478 860.000000
694.587537 838.220903 860.000000
693.651761 836.453327 860.000000
692.715986 834.685751 860.000000
691.780210 832.918175 860.000000
690.844435 831.150599 860.000000
689.908659 829.383023 860.000000
688.972884 827.615448 860.000000
688.037109 825.847872 860.000000
687.101333 824.080296 860.000000
686.165558 822.312720 860.000000
685.229782 820.545144 860.000000
684.294007 818.777568 860.000000
683.358231 817.009993 860.000000
682.422456 815.242417 860.000000
681.486680 813.474841 860.000000
680.550905 811.707265 860.000000
679.615130 809.939689 860.000000
678.679354 808.172113 860.000000
677.743579 806.404538 860.000000
676.807803 804.636962 860.000000
675.872028 802.869386 860.000000
674.936252 801.101810 860.000000
674.000477 799.334234 860.000000
673.064702 797.566658 860.000000
672.128926 795.799083 860.000000
671.193151 794.031507 860.000000
670.257375 792.263931 860.000000
669.321600 790.496355 860.000000
668.385824 788.728779 860.000000
667.450049 786.961203 860.000000
666.514273 785.193628 860.000000
665.578498 783.426052 860.000000
664.642723 781.658476 860.000000
663.706947 779.890900 860.000000
662.771172 778.123324 860.000000
661.835396 776.355748 860.000000
660.899621 774.588173 860.000000
659.963845 772.820597 860.000000
659.028070 771.053021 860.000000
658.092294 769.285445 860.000000
657.156519 767.517869 860.000000
656.220744 765.750293 860.000000
655.284968 763.982718 860.000000
654.349193 762.215142 860.000000
653.413417 760.447566 860.000000
652.477642 758.679990 860.000000
651.541866 756.912414 860.000000
650.606091 755.144838 860.000000
649.670315 753.377263 860.000000
648.734540 751.609687 860.000000
647.798765 749.842111 860.000000
646.862989 748.074535 860.000000
645.927214 746.306959 860.000000
644.991438 744.539383 860.000000
644.055663 742.771808 860.000000
643.119887 741.004232 860.000000
642.184112 739.236656 860.000000
641.248337 737.469080 860.000000
640.312561 735.701504 860.000000
639.376786 733.933928 860.000000
638.441010 732.166353 860.000000
637.505235 730.398777 860.000000
636.569459 728.631201 860.000000
635.633684 726.863625 860.000000
634.697908 725.096049 860.000000
633.762133 723.328473 860.000000
632.826358 721.560898 860.000000
631.890582 719.793322 860.000000
630.954807 718.025746 860.000000
630.019031 716.258170 860.000000
629.083256 714.490594 860.000000
628.147480 712.723018 860.000000
627.211705 710.955443 860.000000
626.275929 709.187867 860.000000
625.340154 707.420291 860.000000
624.404379 705.652715 860.000000
623.468603 703.885139 860.000000
622.532828 702.117563 860.000000
621.597052 700.349988 860.000000
620.661277 698.582412 860.000000
619.725501 696.814836 860.000000
618.789726 695.047260 860.000000
617.853950 693.279684 860.000000
616.918175 691.512108 860.000000
615.982400 689.744533 860.000000
615.046624 687.976957 860.000000
614.110849 686.209381 860.000000
613.175073 684.441805 860.000000
612.239298 682.674229 860.000000
611.303522 680.906653 860.000000
610.367747 679.139078 860.000000
609.431972 677.371502 860.000000
608.496196 675.603926 860.000000
607.560421 673.836350 860.000000
606.624645 672.068774 860.000000
605.688870 670.301198 860.000000
604.753094 668.533623 860.000000
603.817319 666.766047 860.000000
602.881543 664.998471 860.000000
601.945768 663.230895 860.000000
601.009993 661.463319 860.000000
600.074217 659.695743 860.000000
599.138442 657.928168 860.000000
598.202666 656.160592 860.000000
597.266891 654.393016 860.000000
596.331115 652.625440 860.000000
595.395340 650.857864 860.000000
594.459564 649.090288 860.000000
593.523789 647.322713 860.000000
592.588014 645.555137 860.000000
591.652238 643.787561 860.000000
590.716463 642.019985 860.000000
589.780687 640.252409 860.000000
588.844912 638.484833 860.000000
587.909136 636.717258 860.000000
586.973361 634.949682 860.000000
586.037586 633.182106 860.000000
585.101810 631.414530 860.000000
584.166035 629.646954 860.000000
583.230259 627.879378 860.000000
582.294484 626.111803 860.000000
581.358708 624.344227 860.000000
580.422933 622.576651 860.000000
579.487157 620.809075 860.000000
578.551382 619.041499 860.000000
577.615607 617.273923 860.000000
576.679831 615.506348 860.000000
575.744056 613.738772 860.000000
574.808280 611.971196 860.000000
573.872505 610.203620 860.000000
572.936729 608.436044 860.000000
572.000954 606.668468 860.000000
571.065178 604.900893 860.000000
570.129403 603.133317 860.000000
569.193628 601.365741 860.000000
568.257852 599.598165 860.000000
567.322077 597.830589 860.000000
566.386301 596.063013 860.000000
565.450526 594.295438 860.000000
564.514750 592.527862 860.000000
563.578975 590.760286 860.000000
562.643199 588.992710 860.000000
561.707424 587.225134 860.000000
560.771649 585.457558 860.000000
559.835873 583.689983 860.000000
558.900098 581.922407 860.000000
557.964322 580.154831 860.000000
557.028547 578.387255 860.000000
556.092771 576.619679 860.000000
555.156996 574.852103 860.000000
554.221221 573.084528 860.000000
553.285445 571.316952 860.000000
552.349670 569.549376 860.000000
551.413894 567.781800 860.000000
550.478119 566.014224 860.000000
549.542343 564.246648 860.000000
548.606568 562.479073 860.000000
547.670792 560.711497 860.000000
546.735017 558.943921 860.000000
545.799242 557.176345 860.000000
544.863466 555.408769 860.000000
543.927691 553.641193 860.000000
542.991915 551.873618 860.000000
542.056140 550.106042 860.000000
541.120364 548.338466 860.000000
540.184589 546.570890 860.000000
539.248813 544.803314 860.000000
538.313038 543.035738 860.000000
537.377263 541.268163 860.000000
536.441487 539.500587 860.000000
535.505712 537.733011 860.000000
534.569936 535.965435 860.000000
533.634161 534.197859 860.000000
532.698385 532.430283 860.000000
531.762610 530.662708 860.000000
530.826835 528.895132 860.000000
529.891059 527.127556 860.000000
528.955284 525.359980 860.000000
528.019508 523.592404 860.000000
527.083733 521.824829 860.000000
526.147957 520.057253 860.000000
525.212182 518.289677 860.000000
524.276406 516.522101 860.000000
523.340631 514.754525 860.000000
522.404856 512.986949 860.000000
521.469080 511.219374 860.000000
520.533305 509.451798 860.000000
519.597529 507.684222 860.000000
518.661754 505.916646 860.000000
517.725978 504.149070 860.000000
516.790203 502.381494 860.000000
515.854427 500.613919 860.000000
514.918652 498.846343 860.000000
513.982877 497.078767 860.000000
513.047101 495.311191 860.000000
512.111326 493.543615 860.000000
511.175550 491.776039 860.000000
510.239775 490.008464 860.000000
509.303999 488.240888 860.000000
508.368224 486.473312 860.000000
507.432448 484.705736 860.000000
506.496673 482.938160 860.000000
505.560898 481.170584 860.000000
504.625122 479.403009 860.000000
503.689347 477.635433 860.000000
502.753571 475.867857 860.000000
501.817796 474.100281 860.000000
500.882020 472.332705 860.000000
499.946245 470.565129 860.000000
499.010470 468.797554 860.000000
498.074694 467.029978 860.000000
497.138919 465.262402 860.000000
496.203143 463.494826 860.000000
495.267368 461.727250 860.000000
494.331592 459.959674 860.000000
493.395817 458.192099 860.000000
492.460041 456.424523 860.000000
491.524266 454.656947 860.000000
490.588491 452.889371 860.000000
489.652715 451.121795 860.000000
488.716940 449.354219 860.000000
487.781164 447.586644 860.000000
486.845389 445.819068 860.000000
485.909613 444.051492 860.000000
484.973838 442.283916 860.000000
484.038062 440.516340 860.000000
483.102287 438.748764 860.000000
482.166512 436.981189 860.000000
481.230736 435.213613 860.000000
480.294961 433.446037 860.000000
479.359185 431.678461 860.000000
478.423410 429.910885 860.000000
477.487634 428.143309 860.000000
476.551859 426.375734 860.000000
475.616083 424.608158 860.000000
474.680308 422.840582 860.000000
473.744533 421.073006 860.000000
472.808757 419.305430 860.000000
471.872982 417.537854 860.000000
470.937206 415.770279 860.000000
470.001431 414.002703 860.000000
469.065655 412.235127 860.000000
468.129880 410.467551 860.000000
467.194105 408.699975 860.000000
466.258329 406.932399 860.000000
465.322554 405.164824 860.000000
464.386778 403.397248 860.000000
463.451003 401.629672 860.000000
462.515227 399.862096 860.000000
461.579452 398.094520 860.000000
460.643676 396.326944 860.000000
459.707901 394.559369 860.000000
458.772126 392.791793 860.000000
457.836350 391.024217 860.000000
456.900575 389.256641 860.000000
455.964799 387.489065 860.000000
455.029024 385.721489 860.000000
454.093248 383.953914 860.000000
453.157473 382.186338 860.000000
452.221697 380.418762 860.000000
451.285922 378.651186 860.000000
450.350147 376.883610 860.000000
449.414371 375.116034 860.000000
448.478596 373.348459 860.000000
447.542820 371.580883 860.000000
446.607045 369.813307 860.000000
445.671269 368.045731 860.000000
444.735494 366.278155 860.000000
443.799719 364.510579 860.000000
442.863943 362.743004 860.000000
441.928168 360.975428 860.000000
440.992392 359.207852 860.000000
440.056617 357.440276 860.000000
439.120841 355.672700 860.000000
438.185066 353.905124 860.000000
437.249290 352.137549 860.000000
436.313515 350.369973 860.000000
435.377740 348.602397 860.000000
434.441964 346.834821 860.000000
433.506189 345.067245 860.000000
432.570413 343.299669 860.000000
431.634638 341.532094 860.000000
430.698862 339.764518 860.000000
429.763087 337.996942 860.000000
428.827311 336.229366 860.000000
427.891536 334.461790 860.000000
426.955761 332.694214 860.000000
426.019985 330.926639 860.000000
425.084210 329.159063 860.000000
424.148434 327.391487 860.000000
423.212659 325.623911 860.000000
422.276883 323.856335 860.000000
421.341108 322.088759 860.000000
420.405332 320.321184 860.000000
419.469557 318.553608 860.000000
418.533782 316.786032 860.000000
417.598006 315.018456 860.000000
416.662231 313.250880 860.000000
415.726455 311.483304 860.000000
414.790680 309.715729 860.000000
413.854904 307.948153 860.000000
412.919129 306.180577 860.000000
411.983354 304.413001 860.000000
411.047578 302.645425 860.000000
410.111803 300.877849 860.000000
409.176027 299.110274 860.000000
408.240252 297.342698 860.000000
407.304476 295.575122 860.000000
406.368701 293.807546 860.000000
405.432925 292.039970 860.000000
404.497150 290.272394 860.000000
403.561375 288.504819 860.000000
402.625599 286.737243 860.000000
401.689824 284.969667 860.000000
400.754048 283.202091 860.000000
399.818273 281.434515 860.000000
398.882497 279.666939 860.000000
397.946722 277.899364 860.000000
397.010946 276.131788 860.000000
396.075171 274.364212 860.000000
395.139396 272.596636 860.000000
394.203620 270.829060 860.000000
393.267845 269.061484 860.000000
392.332069 267.293909 860.000000
391.396294 265.526333 860.000000
390.460518 263.758757 860.000000
389.524743 261.991181 860.000000
388.588967 260.223605 860.000000
387.653192 258.456029 860.000000
386.717417 256.688454 860.000000
385.781641 254.920878 860.000000
384.845866 253.153302 860.000000
383.910090 251.385726 860.000000
382.974315 249.618150 860.000000
382.038539 247.850574 860.000000
381.102764 246.082999 860.000000
380.166989 244.315423 860.000000
379.231213 242.547847 860.000000
378.295438 240.780271 860.000000
377.359662 239.012695 860.000000
376.423887 237.245119 860.000000
375.488111 235.477544 860.000000
374.552336 233.709968 860.000000
373.616560 231.942392 860.000000
372.680785 230.174816 860.000000
371.745010 228.407240 860.000000
370.809234 226.639664 860.000000
369.873459 224.872089 860.000000
368.937683 223.104513 860.000000
368.001908 221.336937 860.000000
367.066132 219.569361 860.000000
366.130357 217.801785 860.000000
365.194581 216.034209 860.000000
364.258806 214.266634 860.000000
363.323031 212.499058 860.000000
362.387255 210.731482 860.000000
361.451480 208.963906 860.000000
360.515704 207.196330 860.000000
359.579929 205.428754 860.000000
358.644153 203.661179 860.000000
357.708378 201.893603 860.000000
356.772603 200.126027 860.000000
355.836827 198.358451 860.000000
354.901052 196.590875 860.000000
353.965276 194.823299 860.000000
353.029501 193.055724 860.000000
352.093725 191.288148 860.000000
351.157950 189.520572 860.000000
350.222174 187.752996 860.000000
349.286399 185.985420 860.000000
348.350624 184.217844 860.000000
347.414848 182.450269 860.000000
346.479073 180.682693 860.000000
345.543297 178.915117 860.000000
344.000000 176.000000 860.000000
342.438262 174.750610 860.000000
340.876525 173.501220 860.000000
339.314787 172.251830 860.000000
337.753050 171.002440 860.000000
336.191312 169.753050 860.000000
334.629574 168.503659 860.000000
333.067837 167.254269 860.000000
331.506099 166.004879 860.000000
329.944361 164.755489 860.000000
328.382624 163.506099 860.000000
326.820886 162.256709 860.000000
325.259149 161.007319 860.000000
323.697411 159.757929 860.000000
322.135673 158.508539 860.000000
320.573936 157.259149 860.000000
319.012198 156.009758 860.000000
317.450460 154.760368 860.000000
315.888723 153.510978 860.000000
314.326985 152.261588 860.000000
312.765248 151.012198 860.000000
311.203510 149.762808 860.000000
309.641772 148.513418 860.000000
308.080035 147.264028 860.000000
306.518297 146.014638 860.000000
304.956560 144.765248 860.000000
303.394822 143.515858 860.000000
301.833084 142.266467 860.000000
300.271347 141.017077 860.000000
298.709609 139.767687 860.000000
297.147871 138.518297 860.000000
295.586134 137.268907 860.000000
294.024396 136.019517 860.000000
292.462659 134.770127 860.000000
290.900921 133.520737 860.000000
289.339183 132.271347 860.000000
287.777446 131.021957 860.000000
286.215708 129.772566 860.000000
284.653970 128.523176 860.000000
283.092233 127.273786 860.000000
281.530495 126.024396 860.000000
279.968758 124.775006 860.000000
278.407020 123.525616 860.000000
276.845282 122.276226 860.000000
275.283545 121.026836 860.000000
273.721807 119.777446 860.000000
272.160070 118.528056 860.000000
270.598332 117.278666 860.000000
269.036594 116.029275 860.000000
267.474857 114.779885 860.000000
265.913119 113.530495 860.000000
264.351381 112.281105 860.000000
262.789644 111.031715 860.000000
261.227906 109.782325 860.000000
259.666169 108.532935 860.000000
258.104431 107.283545 860.000000
256.542693 106.034155 860.000000
254.980956 104.784765 860.000000
253.419218 103.535374 860.000000
251.857480 102.285984 860.000000
250.295743 101.036594 860.000000
248.734005 99.787204 860.000000
247.172268 98.537814 860.000000
245.610530 97.288424 860.000000
244.048792 96.039034 860.000000
242.487055 94.789644 860.000000
240.925317 93.540254 860.000000
239.363580 92.290864 860.000000
237.801842 91.041474 860.000000
236.240104 89.792083 860.000000
234.678367 88.542693 860.000000
233.116629 87.293303 860.000000
231.554891 86.043913 860.000000
229.993154 84.794523 860.000000
228.431416 83.545133 860.000000
226.869679 82.295743 860.000000
225.307941 81.046353 860.000000
223.746203 79.796963 860.000000
222.184466 78.547573 860.000000
220.622728 77.298182 860.000000
219.060990 76.048792 860.000000
217.499253 74.799402 860.000000
215.937515 73.550012 860.000000
214.375778 72.300622 860.000000
212.814040 71.051232 860.000000
211.252302 69.801842 860.000000
209.690565 68.552452 860.000000
208.128827 67.303062 860.000000
206.567090 66.053672 860.000000
205.005352 64.804282 860.000000
203.443614 63.554891 860.000000
201.881877 62.305501 860.000000
200.320139 61.056111 860.000000
198.758401 59.806721 860.000000
197.196664 58.557331 860.000000
195.634926 57.307941 860.000000
194.073189 56.058551 860.000000
192.511451 54.809161 860.000000
190.949713 53.559771 860.000000
189.387976 52.310381 860.000000
187.826238 51.060990 860.000000
186.264500 49.811600 860.000000
184.702763 48.562210 860.000000
183.141025 47.312820 860.000000
181.579288 46.063430 860.000000
180.017550 44.814040 860.000000
178.455812 43.564650 860.000000
176.894075 42.315260 860.000000
175.332337 41.065870 860.000000
173.770600 39.816480 860.000000
172.208862 38.567090 860.000000
170.647124 37.317699 860.000000
169.085387 36.068309 860.000000
167.523649 34.818919 860.000000
165.961911 33.569529 860.000000
164.400174 32.320139 860.000000
162.838436 31.070749 860.000000
161.276699 29.821359 860.000000
159.714961 28.571969 860.000000
158.153223 27.322579 860.000000
156.591486 26.073189 860.000000
155.029748 24.823798 860.000000
153.468010 23.574408 860.000000
151.906273 22.325018 860.000000
150.344535 21.075628 860.000000
148.782798 19.826238 860.000000
147.221060 18.576848 860.000000
145.659322 17.327458 860.000000
144.097585 16.078068 860.000000
142.535847 14.828678 860.000000
140.974110 13.579288 860.000000
139.412372 12.329898 860.000000
137.850634 11.080507 860.000000
136.288897 9.831117 860.000000
134.727159 8.581727 860.000000
133.165421 7.332337 860.000000
131.603684 6.082947 860.000000
130.041946 4.833557 860.000000
128.480209 3.584167 860.000000
126.918471 2.334777 860.000000
125.356733 1.085387 860.000000
123.794996 -0.164003 860.000000
122.233258 -1.413394 860.000000
120.671520 -2.662784 860.000000
119.109783 -3.912174 860.000000
117.548045 -5.161564 860.000000
115.986308 -6.410954 860.000000
114.424570 -7.660344 860.000000
112.862832 -8.909734 860.000000
111.301095 -10.159124 860.000000
109.739357 -11.408514 860.000000
108.177620 -12.657904 860.000000
106.615882 -13.907294 860.000000
104.000000 -16.000000 860.000000
104.000000 -17.918458 859.434740
104.000000 -19.836916 858.869480
104.000000 -21.755374 858.304220
104.000000 -23.673832 857.738960
104.000000 -25.592290 857.173700
104.000000 -27.510748 856.608440
104.000000 -29.429206 856.043180
104.000000 -31.347664 855.477920
104.000000 -33.266122 854.912660
104.000000 -35.184580 854.347400
104.000000 -37.103038 853.782141
104.000000 -39.021496 853.216881
104.000000 -40.939954 852.651621
104.000000 -42.858412 852.086361
104.000000 -44.776870 851.521101
104.000000 -46.695328 850.955841
104.000000 -48.613786 850.390581
104.000000 -50.532244 849.825321
104.000000 -52.450702 849.260061
104.000000 -54.369160 848.694801
104.000000 -56.287618 848.129541
104.000000 -58.206077 847.564281
104.000000 -60.124535 846.999021
104.000000 -62.042993 846.433761
104.000000 -63.961451 845.868501
104.000000 -65.879909 845.303241
104.000000 -67.798367 844.737981
104.000000 -69.716825 844.172721
104.000000 -71.635283 843.607461
104.000000 -73.553741 843.042201
104.000000 -75.472199 842.476941
104.000000 -77.390657 841.911681
104.000000 -79.309115 841.346422
104.000000 -81.227573 840.781162
104.000000 -83.146031 840.215902
104.000000 -85.064489 839.650642
104.000000 -86.982947 839.085382
104.000000 -88.901405 838.520122
104.000000 -90.819863 837.954862
104.000000 -92.738321 837.389602
104.000000 -94.656779 836.824342
104.000000 -96.575237 836.259082
104.000000 -98.493695 835.693822
104.000000 -100.412153 835.128562
104.000000 -102.330611 834.563302
104.000000 -104.249069 833.998042
104.000000 -106.167527 833.432782
104.000000 -108.085985 832.867522
104.000000 -110.004443 832.302262
104.000000 -111.922901 831.737002
104.000000 -113.841359 831.171742
104.000000 -115.759817 830.606482
104.000000 -117.678275 830.041222
104.000000 -119.596733 829.475963
104.000000 -121.515191 828.910703
104.000000 -123.433649 828.345443
104.000000 -125.352107 827.780183
104.000000 -127.270565 827.214923
104.000000 -129.189023 826.649663
104.000000 -131.107481 826.084403
104.000000 -133.025939 825.519143
104.000000 -134.944397 824.953883
104.000000 -136.862855 824.388623
104.000000 -138.781313 823.823363
104.000000 -140.699771 823.258103
104.000000 -142.618230 822.692843
104.000000 -144.536688 822.127583
104.000000 -146.455146 821.562323
104.000000 -148.373604 820.997063
104.000000 -150.292062 820.431803
104.000000 -152.210520 819.866543
104.000000 -154.128978 819.301283
104.000000 -156.047436 818.736023
104.000000 -157.965894 818.170763
104.000000 -159.884352 817.605504
104.000000 -161.802810 817.040244
104.000000 -163.721268 816.474984
104.000000 -165.639726 815.909724
104.000000 -167.558184 815.344464
104.000000 -169.476642 814.779204
104.000000 -171.395100 814.213944
104.000000 -173.313558 813.648684
104.000000 -175.232016 813.083424
104.000000 -177.150474 812.518164
104.000000 -179.068932 811.952904
104.000000 -180.987390 811.387644
104.000000 -182.905848 810.822384
104.000000 -184.824306 810.257124
104.000000 -186.742764 809.691864
104.000000 -188.661222 809.126604
104.000000 -190.579680 808.561344
104.000000 -192.498138 807.996084
104.000000 -194.416596 807.430824
104.000000 -196.335054 806.865564
104.000000 -198.253512 806.300304
104.000000 -200.171970 805.735044
104.000000 -202.090428 805.169785
104.000000 -204.008886 804.604525
104.000000 -205.927344 804.039265
104.000000 -207.845802 803.474005
104.000000 -209.764260 802.908745
104.000000 -211.682718 802.343485
104.000000 -213.601176 801.778225
104.000000 -215.519634 801.212965
104.000000 -217.438092 800.647705
104.000000 -219.356550 800.082445
104.000000 -221.275008 799.517185
104.000000 -223.193466 798.951925
104.000000 -225.111924 798.386665
104.000000 -227.030383 797.821405
104.000000 -228.948841 797.256145
104.000000 -230.867299 796.690885
104.000000 -232.785757 796.125625
104.000000 -234.704215 795.560365
104.000000 -236.622673 794.995105
104.000000 -238.541131 794.429845
104.000000 -240.459589 793.864585
104.000000 -242.378047 793.299326
104.000000 -244.296505 792.734066
104.000000 -246.214963 792.168806
104.000000 -248.133421 791.603546
104.000000 -250.051879 791.038286
104.000000 -251.970337 790.473026
104.000000 -253.888795 789.907766
104.000000 -255.807253 789.342506
104.000000 -257.725711 788.777246
104.000000 -259.644169 788.211986
104.000000 -261.562627 787.646726
104.000000 -263.481085 787.081466
104.000000 -265.399543 786.516206
104.000000 -267.318001 785.950946
104.000000 -269.236459 785.385686
104.000000 -271.154917 784.820426
104.000000 -273.073375 784.255166
104.000000 -274.991833 783.689906
104.000000 -276.910291 783.124646
104.000000 -278.828749 782.559386
104.000000 -280.747207 781.994126
104.000000 -282.665665 781.428867
104.000000 -284.584123 780.863607
104.000000 -286.502581 780.298347
104.000000 -288.421039 779.733087
104.000000 -290.339497 779.167827
104.000000 -292.257955 778.602567
104.000000 -294.176413 778.037307
104.000000 -296.094871 777.472047
104.000000 -298.013329 776.906787
104.000000 -299.931787 776.341527
104.000000 -301.850245 775.776267
104.000000 -303.768703 775.211007
104.000000 -305.687161 774.645747
104.000000 -307.605619 774.080487
104.000000 -309.524077 773.515227
104.000000 -311.442536 772.949967
104.000000 -313.360994 772.384707
104.000000 -315.279452 771.819447
104.000000 -317.197910 771.254187
104.000000 -319.116368 770.688927
104.000000 -321.034826 770.123667
104.000000 -322.953284 769.558407
104.000000 -324.871742 768.993148
104.000000 -326.790200 768.427888
104.000000 -328.708658 767.862628
104.000000 -330.627116 767.297368
104.000000 -332.545574 766.732108
104.000000 -334.464032 766.166848
104.000000 -336.382490 765.601588
104.000000 -338.300948 765.036328
104.000000 -340.219406 764.471068
104.000000 -342.137864 763.905808
104.000000 -344.056322 763.340548
104.000000 -345.974780 762.775288
104.000000 -347.893238 762.210028
104.000000 -349.811696 761.644768
104.000000 -351.730154 761.079508
104.000000 -353.648612 760.514248
104.000000 -355.567070 759.948988
104.000000 -357.485528 759.383728
104.000000 -359.403986 758.818468
104.000000 -361.322444 758.253208
104.000000 -363.240902 757.687948
104.000000 -365.159360 757.122689
104.000000 -367.077818 756.557429
104.000000 -368.996276 755.992169
104.000000 -370.914734 755.426909
104.000000 -372.833192 754.861649
104.000000 -374.751650 754.296389
104.000000 -376.670108 753.731129
104.000000 -378.588566 753.165869
104.000000 -380.507024 752.600609
104.000000 -382.425482 752.035349
104.000000 -384.343940 751.470089
104.000000 -386.262398 750.904829
104.000000 -388.180856 750.339569
104.000000 -390.099314 749.774309
104.000000 -392.017772 749.209049
104.000000 -393.936230 748.643789
104.000000 -395.854689 748.078529
104.000000 -397.773147 747.513269
104.000000 -399.691605 746.948009
104.000000 -401.610063 746.382749
104.000000 -403.528521 745.817489
104.000000 -405.446979 745.252230
104.000000 -407.365437 744.686970
104.000000 -409.283895 744.121710
104.000000 -411.202353 743.556450
104.000000 -413.120811 742.991190
104.000000 -415.039269 742.425930
104.000000 -416.957727 741.860670
104.000000 -418.876185 741.295410
104.000000 -420.794643 740.730150
104.000000 -422.713101 740.164890
104.000000 -424.631559 739.599630
104.000000 -426.550017 739.034370
104.000000 -428.468475 738.469110
104.000000 -430.386933 737.903850
104.000000 -432.305391 737.338590
104.000000 -434.223849 736.773330
104.000000 -436.142307 736.208070
104.000000 -438.060765 735.642810
104.000000 -439.979223 735.077550
104.000000 -441.897681 734.512290
104.000000 -443.816139 733.947030
104.000000 -445.734597 733.381770
104.000000 -447.653055 732.816511
104.000000 -449.571513 732.251251
104.000000 -451.489971 731.685991
104.000000 -453.408429 731.120731
104.000000 -455.326887 730.555471
104.000000 -457.245345 729.990211
104.000000 -459.163803 729.424951
104.000000 -461.082261 728.859691
104.000000 -464.000000 728.000000
103.152323 -465.771265 727.620443
102.304646 -467.542530 727.240886
101.456969 -469.313796 726.861330
100.609292 -471.085061 726.481773
99.761615 -472.856326 726.102216
98.913938 -474.627591 725.722659
98.066262 -476.398856 725.343102
97.218585 -478.170122 724.963545
96.370908 -479.941387 724.583989
95.523231 -481.712652 724.204432
94.675554 -483.483917 723.824875
93.827877 -485.255183 723.445318
92.980200 -487.026448 723.065761
92.132523 -488.797713 722.686204
91.284846 -490.568978 722.306648
90.437169 -492.340243 721.927091
89.589492 -494.111509 721.547534
88.741815 -495.882774 721.167977
87.894138 -497.654039 720.788420
87.046462 -499.425304 720.408863
86.198785 -501.196569 720.029307
85.351108 -502.967835 719.649750
84.503431 -504.739100 719.270193
83.655754 -506.510365 718.890636
82.808077 -508.281630 718.511079
81.960400 -510.052895 718.131522
81.112723 -511.824161 717.751966
80.265046 -513.595426 717.372409
79.417369 -515.366691 716.992852
78.569692 -517.137956 716.613295
77.722015 -518.909222 716.233738
76.874338 -520.680487 715.854181
76.026662 -522.451752 715.474625
75.178985 -524.223017 715.095068
74.331308 -525.994282 714.715511
73.483631 -527.765548 714.335954
72.635954 -529.536813 713.956397
71.788277 -531.308078 713.576840
70.940600 -533.079343 713.197284
70.092923 -534.850608 712.817727
69.245246 -536.621874 712.438170
68.397569 -538.393139 712.058613
67.549892 -540.164404 711.679056
66.702215 -541.935669 711.299499
65.854538 -543.706934 710.919943
65.006862 -545.478200 710.540386
64.159185 -547.249465 710.160829
63.311508 -549.020730 709.781272
62.463831 -550.791995 709.401715
61.616154 -552.563261 709.022158
60.768477 -554.334526 708.642602
59.920800 -556.105791 708.263045
59.073123 -557.877056 707.883488
58.225446 -559.648321 707.503931
57.377769 -561.419587 707.124374
56.530092 -563.190852 706.744817
55.682415 -564.962117 706.365261
54.834739 -566.733382 705.985704
53.987062 -568.504647 705.606147
53.139385 -570.275913 705.226590
52.291708 -572.047178 704.847033
51.444031 -573.818443 704.467476
50.596354 -575.589708 704.087920
49.748677 -577.360973 703.708363
48.901000 -579.132239 703.328806
48.053323 -580.903504 702.949249
47.205646 -582.674769 702.569692
46.357969 -584.446034 702.190135
45.510292 -586.217300 701.810579
44.662615 -587.988565 701.431022
43.814939 -589.759830 701.051465
42.967262 -591.531095 700.671908
42.119585 -593.302360 700.292351
41.271908 -595.073626 699.912795
40.424231 -596.844891 699.533238
39.576554 -598.616156 699.153681
38.728877 -600.387421 698.774124
37.881200 -602.158686 698.394567
37.033523 -603.929952 698.015010
36.185846 -605.701217 697.635454
35.338169 -607.472482 697.255897
34.490492 -609.243747 696.876340
33.642815 -611.015013 696.496783
32.795139 -612.786278 696.117226
31.947462 -614.557543 695.737669
31.099785 -616.328808 695.358113
30.252108 -618.100073 694.978556
29.404431 -619.871339 694.598999
28.556754 -621.642604 694.219442
27.709077 -623.413869 693.839885
26.861400 -625.185134 693.460328
26.013723 -626.956399 693.080772
25.166046 -628.727665 692.701215
24.318369 -630.498930 692.321658
23.470692 -632.270195 691.942101
22.623015 -634.041460 691.562544
21.775339 -635.812725 691.182987
20.927662 -637.583991 690.803431
20.079985 -639.355256 690.423874
19.232308 -641.126521 690.044317
18.384631 -642.897786 689.664760
